# .PCD v0.7 - Point Cloud Data file format
VERSION 0.7
FIELDS x y z
SIZE 4 4 4
TYPE F F F
COUNT 1 1 1
WIDTH 1479
HEIGHT 1
VIEWPOINT 0 0 0 1 0 0 0
POINTS 1479
DATA ascii
3.7516465 -6.2731924 -0.071056746
3.7721753 -6.2651954 -0.0710546
3.7976894 -6.2641978 -0.071048282
3.8222024 -6.2612 -0.072043136
3.8537207 -6.2702007 -0.073031195
3.8782585 -6.2692027 -0.073025338
3.8930109 -6.271204 -0.074020743
3.9125309 -6.2602077 -0.074020512
3.9440458 -6.2682085 -0.074009232
3.9715698 -6.2702103 -0.075001583
3.9960923 -6.2672129 -0.074996889
4.0246134 -6.2702146 -0.075988695
4.0423636 -6.2762151 -0.076981843
4.0608845 -6.2632189 -0.076983102
4.0964003 -6.2762194 -0.077969067
4.1169219 -6.266223 -0.077968679
4.1484451 -6.2732244 -0.078958333
4.1699629 -6.2642279 -0.078957424
4.1984749 -6.2652302 -0.079950564
4.209229 -6.260232 -0.079950392
4.2467599 -6.2762318 -0.080934927
4.268271 -6.2662358 -0.080934711
4.2928009 -6.2622385 -0.081931204
4.3203034 -6.2602415 -0.081926219
4.3578362 -6.2752414 -0.082911462
4.3693461 -6.2502475 -0.082920447
4.3961029 -6.2682462 -0.083906673
4.4286342 -6.2752471 -0.084896773
4.4591556 -6.2782493 -0.085889183
4.4786625 -6.2642541 -0.085891731
4.5191984 -6.2822533 -0.086875319
4.5317054 -6.2582598 -0.086884037
4.5732193 -6.2752595 -0.087868042
4.5899787 -6.2782607 -0.08886341
4.5984921 -6.2492671 -0.087875418
4.6030202 -6.2162747 -0.086890139
4.6195421 -6.1992803 -0.086895116
4.64505 -6.1932836 -0.08689329
4.8346014 -6.4102526 -0.09775532
5.1251974 -6.7622004 -0.11553454
5.139945 -6.7592025 -0.11553332
5.1634727 -6.7482061 -0.1155344
5.2119832 -6.7682056 -0.11751622
5.2415061 -6.7642088 -0.11851301
5.4963307 -6.9861794 -0.13036154
5.3718114 -6.7812142 -0.12148266
5.3983421 -6.7732182 -0.12248222
5.4208512 -6.7582231 -0.12248595
5.4793849 -6.7902203 -0.12446071
5.4718871 -6.7372308 -0.12248823
5.5156584 -6.7712269 -0.12446442
5.5391698 -6.7572317 -0.12546776
5.7537217 -6.979198 -0.13632362
5.6362104 -6.7912312 -0.12843591
5.6177211 -6.7262444 -0.12647146
5.6142259 -6.6792545 -0.12449578
5.653749 -6.685256 -0.125487
5.676517 -6.6922565 -0.12648016
5.7835584 -6.7352543 -0.13044304
5.7940683 -6.7052622 -0.12945701
5.7965803 -6.6662712 -0.1284768
5.7920895 -6.6192818 -0.12750176
5.7896147 -6.5762916 -0.12652443
5.8043556 -6.5712938 -0.12652512
5.7968717 -6.522305 -0.12455171
5.8093905 -6.4963121 -0.12456375
5.8169026 -6.4643202 -0.12357967
5.8114066 -6.4173312 -0.1226052
5.8249302 -6.3933377 -0.12161627
5.8234463 -6.3523479 -0.12063827
5.8121905 -6.319355 -0.11965722
5.8227124 -6.2923622 -0.11867044
5.8342319 -6.2663698 -0.11868308
5.8277416 -6.2203808 -0.11670859
5.8522592 -6.2083859 -0.11771236
5.8847713 -6.2043896 -0.11771097
5.9462934 -6.2313881 -0.12068964
6.0410614 -6.3123755 -0.12563534
6.1415901 -6.3793669 -0.12958811
3.5448456 -3.6198475 0.014628949
3.5723748 -3.6268506 0.013635197
3.5608952 -3.5928609 0.014614868
3.5524077 -3.5618706 0.015596443
3.5641851 -3.5638721 0.015598504
3.5857015 -3.5638766 0.014600147
3.5812273 -3.5378854 0.015584799
3.5877478 -3.5228925 0.015576585
3.5782673 -3.4919021 0.016557887
3.5867612 -3.4779093 0.017550308
3.6023014 -3.4729145 0.01654844
3.5930548 -3.4529202 0.017536087
3.607594 -3.4469254 0.017533513
3.614085 -3.4309332 0.01752449
3.6226211 -3.4189396 0.017517922
3.6371393 -3.4119453 0.017514654
3.6596448 -3.4119499 0.016516
3.6951907 -3.4259515 0.015526439
3.6649303 -3.3859613 0.017500767
3.7034619 -3.4019628 0.015512533
3.7109773 -3.38797 0.015504529
3.7054935 -3.3619792 0.016488548
3.7280319 -3.3629832 0.016490331
3.7305362 -3.3439913 0.016478928
3.7172816 -3.320998 0.017464275
3.7388208 -3.3210025 0.016465321
3.7723441 -3.3310051 0.015473027
3.826854 -3.3590047 0.013492721
3.8673642 -3.3740065 0.011503782
3.8938909 -3.3770106 0.010506814
7.2463932 -6.2814808 -0.15855318
7.2948995 -6.2834835 -0.15954898
7.3274307 -6.273489 -0.16055299
7.3799386 -6.278492 -0.16154684
7.4254627 -6.2784953 -0.16354419
7.4609828 -6.2695003 -0.16454759
7.5075026 -6.2695041 -0.16554499
7.5432587 -6.2795038 -0.16653696
7.5857763 -6.2755079 -0.16753708
7.6292992 -6.2725124 -0.16953658
7.6778116 -6.2725163 -0.17053406
7.728333 -6.274519 -0.17253026
7.7738461 -6.2715235 -0.17352983
7.815619 -6.2865224 -0.17551857
7.8471279 -6.2715287 -0.17552629
7.8926497 -6.2685328 -0.17752598
7.9531651 -6.276535 -0.17951825
7.9986935 -6.2735391 -0.18051805
8.0462065 -6.2705431 -0.18151782
8.0967321 -6.2705469 -0.18351564
8.1314926 -6.2775478 -0.1845098
8.1840057 -6.2775517 -0.18650763
8.2315311 -6.2745557 -0.18750758
8.2840405 -6.2735596 -0.18950613
8.3305588 -6.2685642 -0.19050747
8.3830872 -6.268568 -0.19250549
8.4325972 -6.2645726 -0.1935062
8.4813585 -6.2805715 -0.19549432
8.5278778 -6.2745762 -0.19649649
8.5753918 -6.2685814 -0.19849864
8.6309118 -6.2685847 -0.19949678
8.6784325 -6.2625899 -0.20149906
8.7269478 -6.2565947 -0.20250136
8.781476 -6.255599 -0.20450032
8.842227 -6.277597 -0.20648435
8.8867512 -6.2686019 -0.20748881
8.9452686 -6.2686057 -0.20948713
9.0037909 -6.26861 -0.21148549
9.0523043 -6.2606153 -0.21248932
9.1068201 -6.2566199 -0.21449047
9.1625738 -6.2736187 -0.21647801
9.2181005 -6.2706232 -0.21847856
9.2796173 -6.270627 -0.22047704
9.3371372 -6.2676315 -0.22247763
9.3856592 -6.2586374 -0.2234824
9.4621677 -6.2666397 -0.22647546
9.4996881 -6.2496471 -0.22748581
9.3784361 -6.1486692 -0.22155474
9.4429588 -6.149673 -0.22355279
9.7540131 -6.2676573 -0.23546886
9.8215246 -6.2676616 -0.23746762
9.885047 -6.265666 -0.23946781
9.9368038 -6.2766657 -0.24145962
9.9963284 -6.2716708 -0.24346194
10.064839 -6.2706747 -0.24546149
10.123357 -6.2636805 -0.24746525
10.19288 -6.2636843 -0.24946421
10.272397 -6.2686877 -0.2524597
10.335917 -6.2636929 -0.25446221
10.39468 -6.2776923 -0.25645202
10.468197 -6.2776966 -0.25945106
10.52071 -6.2647033 -0.26045915
10.600229 -6.2677064 -0.26345623
10.675747 -6.2677107 -0.26645535
10.743265 -6.2627158 -0.26845801
10.902789 -6.3107104 -0.27442387
11.022557 -6.3577027 -0.27939078
6.8149037 -3.8962133 -0.093102984
6.802422 -3.8612254 -0.092127308
6.9989343 -3.9442134 -0.10006953
6.8394694 -3.8272421 -0.093151025
6.8295031 -3.7662644 -0.091193661
6.8332572 -3.7542696 -0.09120208
6.8413019 -3.7042897 -0.090237223
6.6889138 -2.5557544 -0.068069316
6.8479466 -2.5677629 -0.074062876
6.9474497 -2.579766 -0.078055471
6.9359841 -2.5517771 -0.077076189
6.7967505 -2.4887936 -0.071121052
6.6932817 -2.4278121 -0.067165025
6.8133039 -2.4228244 -0.071170717
6.8168349 -2.4008346 -0.071187273
6.8333549 -2.3828442 -0.071201041
6.8358731 -2.3598547 -0.071218349
6.86064 -2.356858 -0.072221003
6.8801632 -2.3398671 -0.072234094
6.9236665 -2.3298752 -0.074242309
6.9721808 -2.3218825 -0.0762491
7.0277152 -2.316889 -0.078253739
7.0822229 -2.3098962 -0.079259872
8.9509745 -2.8397942 -0.15388979
8.9274931 -2.8018079 -0.15291777
8.9240236 -2.7708201 -0.15294081
8.9165392 -2.737833 -0.15196529
9.0821581 -2.256037 -0.1533277
10.050451 -2.3780298 -0.19124717
10.16701 -2.3050632 -0.19530283
28.209606 -6.2711792 -0.90452242
28.561123 -6.2551885 -0.91753584
29.523886 -6.4161549 -0.95442408
29.633404 -6.3431764 -0.9584775
29.763916 -6.2731977 -0.96252882
30.190435 -6.2642045 -0.97853738
31.244961 -6.3801837 -1.0194585
31.243473 -6.2782121 -1.0185323
19.253654 -3.7827823 -0.54828256
19.189171 -3.7078049 -0.5453369
19.176687 -3.6428251 -0.5443843
19.189203 -3.5828443 -0.54442817
19.181726 -3.5198638 -0.54447407
19.20224 -3.4608827 -0.54451722
19.23576 -3.404901 -0.54555821
19.280521 -3.3819089 -0.54757529
19.44404 -3.3479223 -0.55360091
36.161648 -6.0903077 -1.2046884
36.273163 -5.9923353 -1.2077595
37.863689 -6.132309 -1.2696645
37.8862 -6.0143414 -1.2697494
24.794641 -3.8638339 -0.75925118
24.798401 -3.8248456 -0.75927937
24.801918 -3.7458689 -0.75933653
24.793434 -3.6648929 -0.75839502
24.79895 -3.5859165 -0.75845218
24.799469 -3.5069401 -0.75850922
24.779989 -3.4249647 -0.75756836
24.777746 -3.3849761 -0.75659722
24.787264 -3.3069999 -0.75665355
24.784782 -3.2280235 -0.75671053
24.830305 -3.1550455 -0.75776327
24.861818 -3.0790684 -0.75881809
24.980335 -3.0140891 -0.7628653
25.125858 -2.9521089 -0.76891041
25.292616 -2.9311166 -0.77492595
25.299137 -2.8521402 -0.77498275
25.329657 -2.7751634 -0.77603811
25.385172 -2.7001863 -0.77809203
25.293692 -2.6102126 -0.77415639
25.451216 -2.5462327 -0.77920264
25.690973 -2.5292397 -0.78921539
35.566044 -3.0411465 -1.1698703
35.573563 -2.9291778 -1.1689496
35.402081 -2.8042121 -1.1630379
35.314842 -2.7412293 -1.1590825
35.313354 -2.6292608 -1.1591618
35.549881 -2.5352879 -1.1672287
35.59539 -2.425319 -1.1693064
35.725914 -2.3223481 -1.1743792
38.24995 -2.2433777 -1.2714376
41.136703 -2.3453574 -1.3823686
41.90823 -2.2573833 -1.4124311
42.125744 -2.1364169 -1.4205161
47.384262 -2.2503967 -1.62244
47.534782 -2.1084352 -1.6285393
47.784298 -1.968473 -1.6376373
48.184059 -1.9094893 -1.6536785
47.909573 -1.7475322 -1.6427914
47.932091 -1.5975724 -1.6438957
47.968616 -1.4486122 -1.6449994
48.004131 -1.2986524 -1.6461035
48.015652 -1.1476928 -1.6462082
48.023174 -0.997733 -1.6473122
48.017929 -0.92175329 -1.6463647
48.04245 -0.77079374 -1.6474692
48.017967 -0.61983407 -1.6465733
47.999493 -0.46887448 -1.6456776
47.970013 -0.31791487 -1.6447815
47.93853 -0.16695529 -1.6438854
47.936054 -0.01699545 -1.6439884
42.631535 0.12996468 -1.6930892
42.670059 0.26392829 -1.6941812
42.712582 0.39789194 -1.6962729
42.746101 0.53285527 -1.6983651
42.758625 0.66681892 -1.6984566
40.957142 0.76878977 -1.6195264
42.793907 0.86976385 -1.700595
42.840431 1.0047272 -1.7026868
42.915951 1.1416901 -1.7067797
43.000477 1.2786533 -1.7108727
43.066994 1.416616 -1.7139661
43.145523 1.5545785 -1.7180593
43.19804 1.6925412 -1.7201524
43.330807 1.7655219 -1.7272015
43.376331 1.9034846 -1.7292944
43.457851 2.0444467 -1.733389
43.548378 2.1854088 -1.7374835
43.690903 2.3303699 -1.7445807
43.796429 2.4733317 -1.7496762
43.946194 2.551311 -1.7567283
44.092716 2.6992714 -1.7638268
44.233238 2.8472321 -1.7699254
44.370766 2.9961925 -1.7770243
44.54229 3.1481519 -1.785125
44.710815 3.3011115 -1.7932262
44.881344 3.4550707 -1.8013279
45.068108 3.5410483 -1.8103846
45.275631 3.7000065 -1.8194895
45.439159 3.8569651 -1.8275926
45.628681 4.0179229 -1.8366982
45.775215 4.1748815 -1.8438009
45.963741 4.3378391 -1.8529075
46.152267 4.5017958 -1.8630145
46.354031 4.5947723 -1.8720751
46.726559 4.780724 -1.8891964
46.549084 4.9096889 -1.8822795
46.620617 5.0656481 -1.8863806
46.874142 5.2426023 -1.898495
46.952671 5.4005609 -1.9025968
47.044201 5.5605192 -1.9076997
41.677483 5.1286087 -1.6684121
41.278015 5.2115841 -1.6514643
41.064537 5.316555 -1.6425308
40.849068 5.4195261 -1.6335958
40.734596 5.5344944 -1.6296685
40.719364 5.5974774 -1.6287084
40.718891 5.7284427 -1.6297913
40.70042 5.8564076 -1.629872
40.685951 5.9843736 -1.6299524
40.743481 6.1233368 -1.6340399
40.672009 6.2443037 -1.6321155
40.619545 6.366271 -1.6301914
35.760349 5.8973637 -1.4138789
35.640881 5.9923368 -1.4089373
35.875412 6.1482959 -1.420035
35.723942 6.2372704 -1.4140891
35.713707 6.2942553 -1.4141241
35.707241 6.4082241 -1.4151942
35.657303 6.6311631 -1.4153303
35.64183 6.7441325 -1.4153991
35.598362 6.8521032 -1.4144644
35.603893 6.9700713 -1.4155359
28.138607 5.5613852 -1.0766313
27.54567 5.6243601 -1.0516653
27.480198 5.7013378 -1.0497112
26.130245 5.5953507 -0.98963702
25.744776 5.5973449 -0.97363502
25.477533 5.582346 -0.96162379
25.233063 5.6123338 -0.95163953
25.082594 5.6613178 -0.94566721
26.1882 6.170188 -0.99897832
25.823725 6.1711826 -0.98297495
25.153015 6.1371827 -0.9539476
25.067547 6.2001634 -0.95098329
26.351162 6.7800188 -1.0123342
26.326929 6.8180079 -1.0123557
25.926987 6.8899822 -0.99539119
24.994041 6.8119893 -0.95433307
25.010908 7.7567267 -0.96785748
24.889444 7.8047118 -0.96388084
25.076979 7.950675 -0.97296393
27.891563 8.9354534 -1.1065583
36.464481 11.731836 -1.5092592
36.132015 11.750828 -1.4952611
35.782547 11.762821 -1.4812583
35.408085 11.762817 -1.4652485
35.085609 11.77981 -1.4522487
34.742149 11.785804 -1.4372423
34.399681 11.7918 -1.4232357
34.084442 11.743808 -1.4092016
33.755978 11.749803 -1.3951951
23.535831 8.3725319 -0.91514641
32.810574 11.770786 -1.3561766
22.767422 8.3435249 -0.88210773
23.138197 8.520484 -0.90020978
23.078732 8.5814667 -0.89923877
31.407475 11.773769 -1.2981311
22.982334 8.7944078 -0.89834255
23.049871 8.9033804 -0.90339929
30.321836 11.75176 -1.2520803
30.057369 11.758756 -1.2410736
29.779902 11.758752 -1.2300627
29.524435 11.765746 -1.2190559
29.265966 11.770741 -1.2090477
28.9995 11.769738 -1.198036
28.775265 11.731745 -1.1880082
28.522795 11.73474 -1.1779988
28.284332 11.740736 -1.167991
28.043861 11.74573 -1.1579827
27.805393 11.749727 -1.1479737
27.572929 11.753722 -1.1389645
27.355461 11.763717 -1.1299589
27.144226 11.723723 -1.12093
26.941759 11.737718 -1.1129265
26.770294 11.763708 -1.10693
26.600828 11.7897 -1.0999334
26.41036 11.805693 -1.0929307
26.213894 11.817687 -1.0849257
25.994429 11.817683 -1.0759139
25.804192 11.78069 -1.0678867
25.606724 11.788684 -1.0598793
25.402254 11.79268 -1.0518695
25.210789 11.800675 -1.043862
25.019323 11.807671 -1.0368539
24.820854 11.810667 -1.0288434
24.633392 11.816662 -1.0208347
24.462152 11.782668 -1.0138092
24.274683 11.787664 -1.0057997
24.099218 11.796659 -0.99979234
23.915752 11.800654 -0.99178225
23.726286 11.800652 -0.9847697
23.55282 11.807647 -0.97776109
23.401583 11.778651 -0.97073853
23.219112 11.779648 -0.96372646
23.055647 11.788643 -0.95771873
22.886181 11.793639 -0.95070875
22.725718 11.801635 -0.94470048
22.695253 11.877615 -0.94572949
22.699797 11.970593 -0.94776779
22.712566 12.023582 -0.94879031
22.618103 12.06557 -0.94580007
22.633646 12.165545 -0.94884151
22.711191 12.299516 -0.95490122
22.700733 12.386495 -0.95693493
22.690277 12.473474 -0.95796835
22.709049 12.53046 -0.95999235
22.705589 12.622439 -0.96202797
22.694136 12.709418 -0.96306074
22.698675 12.806396 -0.96609855
22.68722 12.894375 -0.9671312
22.685762 12.988353 -0.96916687
22.684301 13.083331 -0.97120261
22.707079 13.143318 -0.97322726
22.697618 13.234297 -0.97526038
22.697161 13.330275 -0.97729605
22.690708 13.422254 -0.97932929
22.688253 13.517232 -0.98136377
22.683796 13.612211 -0.9833979
22.678341 13.706189 -0.98543125
22.686111 13.760178 -0.98745143
22.693659 13.862155 -0.9894886
22.681198 13.954134 -0.99151993
22.675745 14.049113 -0.99355268
22.686293 14.15409 -0.9965905
22.68684 14.254068 -0.99862516
22.664377 14.341049 -1.0006526
22.701155 14.414033 -1.0036817
18.355392 11.751568 -0.77528435
18.233925 11.755565 -0.77127194
18.206465 11.81955 -0.7712903
18.097998 11.831545 -0.76728165
18.002535 11.850539 -0.76427674
18.001305 11.89053 -0.76528978
18.001842 11.973511 -0.767317
18.038389 12.079488 -0.77135593
17.968927 12.115479 -0.77035892
17.875463 12.135472 -0.76735353
17.755999 12.13647 -0.76233858
17.64653 12.144465 -0.75932699
17.549297 12.11847 -0.7543062
17.429827 12.118468 -0.75029039
17.322361 12.125464 -0.74627823
17.217894 12.13446 -0.74326676
17.109428 12.139458 -0.7392534
17.00396 12.146454 -0.73524088
16.907724 12.118459 -0.73121905
16.80126 12.122457 -0.72720516
16.703794 12.133452 -0.72419441
16.588326 12.130451 -0.72017676
16.47986 12.13145 -0.71616107
16.391394 12.147444 -0.71315247
16.279924 12.145443 -0.70913512
15.943666 11.935483 -0.69202483
15.684183 11.820503 -0.67895287
15.481703 11.746515 -0.66990095
15.393238 11.756512 -0.66688985
15.347774 11.799502 -0.66689432
15.31732 11.852489 -0.66690367
15.349095 11.915476 -0.66992563
10.824127 8.4901323 -0.41627568
10.769651 8.5041265 -0.41427064
10.730188 8.52812 -0.41427055
10.696724 8.5571117 -0.41327265
10.66326 8.5861025 -0.41327459
10.635802 8.6190929 -0.41327843
10.620566 8.6350889 -0.41327989
10.625103 8.695075 -0.4152959
10.629643 8.7550611 -0.4173117
10.713193 8.8800354 -0.42335746
15.339308 12.745302 -0.693133
15.348853 12.835284 -0.69615608
15.337398 12.90827 -0.69817096
15.360176 12.968259 -0.70018923
15.350717 13.044244 -0.70220482
15.348261 13.126226 -0.70422298
15.349809 13.21121 -0.70724231
15.337353 13.285195 -0.70925623
15.338901 13.371179 -0.71127534
15.328449 13.447164 -0.71328968
15.356221 13.515151 -0.71630985
15.340769 13.587136 -0.71832192
15.344316 13.677119 -0.7203415
15.337864 13.758104 -0.72335684
15.340412 13.848087 -0.72537571
15.329956 13.927072 -0.7273894
15.350733 13.990061 -0.7304064
15.348284 14.076044 -0.73242283
15.341828 14.160028 -0.73543763
15.332376 14.241014 -0.73745108
15.336924 14.335997 -0.74047005
15.325467 14.416981 -0.74248248
15.325016 14.507965 -0.74549907
12.28334 11.692473 -0.5592792
12.221875 11.708469 -0.55826777
12.075396 11.64348 -0.55122179
12.088942 11.730464 -0.55424041
12.010477 11.728463 -0.55222124
11.938004 11.733461 -0.55020463
11.86254 11.73346 -0.5471862
11.802304 11.711464 -0.54516768
11.683832 11.66847 -0.54013121
11.606358 11.66647 -0.53711146
11.546896 11.680467 -0.53609872
11.47643 11.683465 -0.53408116
11.418965 11.699461 -0.53206885
11.549534 11.906424 -0.54313433
11.381276 11.772448 -0.53307003
11.351812 11.817439 -0.53406894
11.339355 11.879428 -0.53607464
11.465925 12.08639 -0.54613835
11.523033 12.299353 -0.55518359
11.156733 11.952413 -0.53203499
11.10627 11.974408 -0.53202391
11.04981 11.989405 -0.53000993
11.281398 12.315349 -0.5481177
11.400968 12.523314 -0.55817819
11.39952 12.6003 -0.56118727
11.5811 12.880252 -0.5762741
11.660888 13.00923 -0.58231294
11.577422 12.999232 -0.57928693
11.557961 13.061221 -0.5812881
11.982605 13.619128 -0.61247867
11.969145 13.692116 -0.61448246
11.91969 13.722112 -0.6144703
10.2879 11.944408 -0.50577861
10.256662 11.947409 -0.50576919
10.191195 11.948407 -0.50374871
10.128729 11.952407 -0.50172931
10.063263 11.952407 -0.49970841
9.9937944 11.947408 -0.49768552
9.9313269 11.950407 -0.49566549
9.8788595 11.965405 -0.49464959
9.8286295 11.942408 -0.49263102
9.7681589 11.947408 -0.49161133
9.7116985 11.955405 -0.48959309
9.6402245 11.946407 -0.48756817
11.970319 14.879933 -0.65558887
11.965869 14.970921 -0.65859383
11.963422 15.064907 -0.66159952
11.985199 15.141895 -0.66461229
11.984756 15.238881 -0.6686185
11.971307 15.320869 -0.67061883
11.971864 15.420856 -0.67462504
9.2037315 11.982403 -0.47641763
9.1492615 11.991401 -0.47539833
9.0860176 11.949409 -0.47237283
9.0255547 11.948408 -0.47035053
8.9910975 11.981403 -0.47033951
8.9476318 12.003401 -0.47032434
8.8381453 11.938412 -0.46527997
8.7826834 11.94241 -0.46425909
8.7252178 11.94441 -0.46223718
8.6849823 11.929413 -0.46122104
8.5174789 11.782436 -0.45115036
8.4530125 11.772438 -0.44912478
8.4115458 11.794436 -0.44910923
8.4041014 11.861425 -0.45110846
8.3686409 11.891422 -0.45109516
8.3099384 11.930416 -0.45107248
10.849234 15.603865 -0.65019614
8.1799994 11.906422 -0.44701871
8.1315336 11.917419 -0.44599885
8.0710688 11.910421 -0.44397348
10.698416 15.810845 -0.65413558
11.942343 17.739563 -0.75668615
11.974136 17.845551 -0.76170051
11.945692 17.924543 -0.76368845
20.058666 30.124763 -1.4192722
11.943813 18.168516 -0.77268767
11.946377 18.297501 -0.77768838
11.897925 18.349499 -0.77866626
7.2963204 11.556481 -0.41163495
7.2418571 11.551483 -0.40961033
7.1923804 11.556483 -0.40958771
7.1359167 11.547484 -0.4075619
7.1050024 11.662471 -0.41054571
7.0937743 11.685468 -0.41154
7.0423102 11.684468 -0.41051576
6.992847 11.686469 -0.40949219
6.945384 11.691469 -0.40846938
6.8929052 11.690472 -0.40744415
6.8434424 11.691472 -0.40642011
6.8132043 11.683475 -0.40540561
6.7647376 11.686474 -0.40438172
6.7112699 11.680476 -0.40235552
6.6638083 11.683477 -0.40133184
6.6173396 11.689478 -0.40030834
6.5708747 11.694479 -0.40028471
6.5173993 11.688481 -0.39825782
6.4881687 11.679482 -0.39724329
6.4436975 11.688483 -0.39722005
6.391232 11.681485 -0.39519328
6.3447709 11.684485 -0.39416897
6.296299 11.685488 -0.39314353
6.2508388 11.689488 -0.39311936
6.2023635 11.69049 -0.3920936
6.1761293 11.686491 -0.39107984
6.1246581 11.680493 -0.3890526
6.0801978 11.685494 -0.38902831
6.0317268 11.684496 -0.38800204
5.9842596 11.684498 -0.38697609
5.9057755 11.625506 -0.38293689
5.8563128 11.61951 -0.38190994
5.8310752 11.61651 -0.38089609
5.7946172 11.635509 -0.38087431
5.7681565 11.675507 -0.38185644
5.7617097 11.754499 -0.38484669
5.730247 11.785497 -0.38582629
5.6897907 11.796497 -0.38480219
5.6383123 11.7885 -0.38377312
5.570055 11.697513 -0.37874112
5.472682 11.779509 -0.37967679
5.5402646 12.019483 -0.39069504
5.357626 11.975496 -0.385589
5.228106 11.795519 -0.37652776
5.086709 11.780528 -0.3724418
5.1553068 12.035501 -0.38445744
4.8835988 11.776539 -0.36931363
4.8411379 11.779541 -0.36828592
4.7356353 11.634559 -0.36023459
4.7003899 11.603564 -0.35821533
4.663929 11.619565 -0.35818961
4.6204586 11.619567 -0.35816106
4.5909977 11.653565 -0.35913742
3.7149835 9.6107817 -0.25980973
3.6945229 9.6487789 -0.26079151
4.4726033 11.680572 -0.35805488
4.449367 11.676573 -0.35703969
4.4078989 11.680575 -0.35701105
4.3674374 11.685577 -0.35598278
4.3209691 11.675581 -0.35495225
4.2805047 11.680584 -0.35492364
4.2390337 11.684586 -0.35389432
4.1955667 11.68159 -0.35286441
4.1713376 11.671592 -0.35284886
4.1318703 11.679594 -0.35181993
4.089395 11.680597 -0.35178974
4.0459275 11.6766 -0.35075939
4.0054698 11.678603 -0.34973013
3.9619985 11.674607 -0.34969944
3.921524 11.68061 -0.34866929
3.8992929 11.675611 -0.34865388
3.8608282 11.684614 -0.34862447
3.8153536 11.674619 -0.34659263
3.7758906 11.679621 -0.34656277
3.7334216 11.676624 -0.34553176
3.690958 11.671629 -0.34550089
3.6514931 11.676631 -0.3444705
3.6322606 11.680633 -0.34445539
3.5907955 11.678637 -0.3444244
3.5473166 11.67364 -0.34339219
3.5068545 11.673643 -0.34236127
3.4683943 11.679646 -0.34233078
3.4269254 11.67765 -0.34129912
3.3884573 11.685654 -0.34126794
3.3632188 11.669657 -0.34025097
3.3227453 11.67166 -0.34021899
3.2822814 11.670664 -0.33918738
3.2428181 11.672667 -0.33915588
3.2013466 11.669672 -0.33812347
3.1638808 11.679674 -0.33809185
3.1406507 11.666677 -0.3370755
3.1021843 11.67268 -0.33704349
3.0627084 11.677684 -0.33701071
3.0032296 11.604693 -0.33297551
2.9647646 11.608698 -0.33294338
2.9242964 11.605701 -0.33191076
2.884824 11.607705 -0.33187783
2.8645937 11.604708 -0.33086166
2.8241253 11.600712 -0.33082879
2.7856612 11.603716 -0.32979611
2.7461917 11.603721 -0.32976303
2.7087264 11.610723 -0.32973012
2.6682553 11.606728 -0.32869661
2.6297829 11.611732 -0.3286629
2.6095514 11.607735 -0.32864639
2.5700848 11.605739 -0.32761291
2.5306191 11.602743 -0.3275795
2.4931543 11.608748 -0.32754588
2.4516833 11.597753 -0.32651198
2.4152148 11.609756 -0.32647774
2.375747 11.606761 -0.32544366
2.3555169 11.600763 -0.32542703
2.3170471 11.602768 -0.3253926
2.2785778 11.604773 -0.32435805
2.2401164 11.602777 -0.3243241
2.2016494 11.602782 -0.32428959
2.1621792 11.598787 -0.32325485
2.1247127 11.603792 -0.32321993
2.1034718 11.595795 -0.32220227
2.0660083 11.598799 -0.32216749
2.0285449 11.601803 -0.32213256
1.9890705 11.597809 -0.32209709
1.949602 11.590814 -0.32106209
1.9131396 11.598819 -0.32102656
1.8756745 11.601823 -0.32099098
1.8544352 11.590827 -0.31997344
1.8179705 11.599831 -0.31993729
1.779501 11.597836 -0.31990144
1.741037 11.592842 -0.31886607
1.7035645 11.598847 -0.31882915
1.6661024 11.598852 -0.31879336
1.6276338 11.594857 -0.3187573
1.6083943 11.59586 -0.31873855
1.5709258 11.598866 -0.31870168
1.533463 11.598871 -0.31766531
1.4959972 11.599876 -0.31762856
1.4585326 11.599882 -0.31759191
1.421066 11.600888 -0.31755486
1.3825932 11.597893 -0.31651753
1.3623537 11.588897 -0.3164995
1.3258904 11.595902 -0.31646171
1.2894286 11.601907 -0.31642398
1.2499515 11.590914 -0.31538689
1.2134929 11.59392 -0.31534955
1.1760203 11.597925 -0.31531078
1.1567881 11.590928 -0.31529287
1.1193173 11.592934 -0.3152543
1.0828569 11.59694 -0.31521615
1.0443804 11.592946 -0.3141776
1.0079218 11.594952 -0.3141396
0.9714554 11.604958 -0.31409961
0.9329831 11.593965 -0.31406221
0.91374534 11.589968 -0.31404307
0.87728405 11.593974 -0.31400409
0.83981085 11.59698 -0.3139641
0.80234343 11.593987 -0.31292534
0.76588494 11.593993 -0.3128868
0.72841418 11.592999 -0.31284729
0.69094437 11.590006 -0.31280804
0.67271537 11.589009 -0.31278878
0.63524705 11.584015 -0.31174979
0.60580957 11.696021 -0.31669191
0.4246462 9.6460562 -0.22597626
0.394178 9.6560612 -0.22594112
0.36371636 9.656065 -0.2259082
0.43469283 11.639051 -0.31351912
0.39722008 11.643059 -0.31347698
0.36076137 11.643065 -0.31343672
0.3232888 11.647072 -0.31339425
0.28581825 11.64208 -0.31335375
0.24935876 11.644087 -0.31331256
0.21188718 11.641094 -0.31327128
0.19264647 11.634098 -0.31225133
0.15618536 11.639105 -0.31320903
0.11871285 11.644113 -0.31316543
0.082253359 11.64512 -0.31312379
0.044781644 11.638126 -0.31208277
0.007308851 11.637135 -0.31204012
-0.010920665 11.641138 -0.31201825
-0.04738038 11.642146 -0.31197608
-0.084853239 11.641153 -0.31193304
-0.12232606 11.645161 -0.31288865
-0.15878539 11.643168 -0.31184673
-0.19625875 11.641176 -0.31180346
-0.2327206 11.636184 -0.31176195
-0.27019441 11.634192 -0.31171837
-0.28842327 11.637197 -0.31169617
-0.32589623 11.637204 -0.31165189
-0.36235839 11.633211 -0.3116096
-0.39983091 11.63422 -0.31156474
-0.43730268 11.636228 -0.31151947
-0.47375685 11.647236 -0.31247312
-0.51123548 11.636245 -0.31143069
-0.52947831 11.616249 -0.31041351
-0.57186246 11.839261 -0.32030845
-0.50664723 8.2591906 -0.1622517
-0.53015119 8.1681919 -0.1582455
-0.55462003 8.1391964 -0.15722306
-0.58209437 8.1582012 -0.15818527
-0.59333432 8.1232023 -0.15618014
-0.61882555 8.0962057 -0.15515573
-0.64330667 8.0652084 -0.15413342
-0.66778046 8.0422125 -0.1531091
-0.69226241 8.0152149 -0.15208563
-0.71773785 8.0072203 -0.15105623
-0.74418408 8.0322247 -0.15201755
-0.75543541 8.0012255 -0.15101114
-0.77991015 7.9832296 -0.14998515
-0.80836654 8.0232353 -0.15194006
-0.83384562 8.0142403 -0.15191044
-0.86031342 8.0222445 -0.15187535
-0.88478023 8.0102482 -0.15184751
-0.91423935 8.0522556 -0.15380022
-0.92946643 8.0782585 -0.1547747
-0.95394605 8.0582619 -0.1537485
-0.9794144 8.0542669 -0.15371709
-1.0068827 8.0682726 -0.15467867
-1.0303451 8.0492764 -0.15365323
-1.0568187 8.051281 -0.15361877
-1.0842954 8.0602865 -0.15458123
-1.1005181 8.0912905 -0.15555283
-1.1239916 8.0682945 -0.15452798
-1.1534493 8.0993013 -0.15648229
-1.1819135 8.1183081 -0.15744066
-1.2243148 8.2643213 -0.1643503
-1.2577728 8.31633 -0.16629398
-1.702201 11.625539 -0.31391862
-1.7336735 11.583547 -0.3118864
-1.771143 11.582557 -0.3118363
-1.8096184 11.584567 -0.311784
-1.8450831 11.573577 -0.31173864
-1.8835461 11.581588 -0.31268463
-1.9027898 11.579593 -0.31265894
-1.9402533 11.580604 -0.31260771
-1.9777277 11.576614 -0.31255746
-2.0151823 11.581625 -0.31350499
-2.0536544 11.583636 -0.31345168
-2.0911231 11.581646 -0.31340051
-2.1285963 11.577658 -0.31334966
-2.1488256 11.586663 -0.31431958
-2.1862833 11.588675 -0.31426716
-2.2237604 11.582685 -0.31421638
-2.2622204 11.588696 -0.31516132
-2.2976944 11.573708 -0.31411511
-2.3361585 11.577719 -0.3150602
-2.3756356 11.58073 -0.31500393
-2.3928711 11.571735 -0.31498167
-2.4303336 11.570746 -0.31492895
-2.4717913 11.58976 -0.3158659
-2.5092633 11.584771 -0.31581375
-2.5447333 11.571782 -0.31576613
-2.5852003 11.581794 -0.31670603
-2.6226716 11.576806 -0.31665346
-2.641906 11.576813 -0.31662583
-2.6813698 11.582825 -0.31756771
-2.7208314 11.588837 -0.31750944
-2.7573042 11.578849 -0.3174589
-2.7967775 11.580861 -0.31840116
-2.8322492 11.566872 -0.31735268
-2.8707097 11.568884 -0.31829613
-2.8949437 11.587893 -0.31925651
-2.9304097 11.575904 -0.31920722
-2.9688828 11.572916 -0.31915137
-3.0093484 11.579929 -0.32009032
-3.047817 11.577942 -0.32003397
-3.085283 11.572954 -0.31997961
-3.1247573 11.572968 -0.32092103
-3.1439807 11.574973 -0.32089204
-3.1864552 11.584989 -0.32182664
-3.2359054 11.626007 -0.32374409
-3.2743723 11.623019 -0.32368714
-3.3128433 11.619033 -0.32463023
-3.3543055 11.627047 -0.32456616
-3.3917704 11.621059 -0.32551089
-3.4120054 11.622066 -0.3254801
-3.4534771 11.627081 -0.32641628
-3.493938 11.631096 -0.32635403
-3.5304105 11.619107 -0.32630101
-3.5718715 11.626122 -0.32723632
-3.6123486 11.625136 -0.32717463
-3.6305807 11.620142 -0.32714772
-3.6700463 11.619157 -0.32808739
-3.7125113 11.627172 -0.32902041
-3.7509778 11.622186 -0.32896212
-3.7904477 11.6192 -0.32890171
-3.8329172 11.625216 -0.32983473
-3.8703902 11.615228 -0.32977852
-3.894623 11.627237 -0.33073843
-3.934087 11.625252 -0.33167729
-3.9745607 11.623267 -0.33161446
-4.0120325 11.61328 -0.33155772
-4.0504985 11.607294 -0.33149853
-4.0929651 11.61231 -0.33243078
-4.1364331 11.619328 -0.33336088
-4.1556606 11.617334 -0.3333309
-4.1971297 11.61835 -0.33426511
-4.2386055 11.617366 -0.33419952
-4.2790694 11.616381 -0.3351354
-4.3215427 11.618397 -0.33606738
-4.3610101 11.613412 -0.3360053
-4.4024739 11.614428 -0.33693877
-4.4236989 11.617436 -0.3369042
-4.467175 11.620453 -0.33783382
-4.5076418 11.617469 -0.33776927
-4.5491109 11.616485 -0.33870262
-4.5895805 11.6125 -0.33863795
-4.6300502 11.608516 -0.33957312
-4.6715107 11.608532 -0.33950582
-4.6977515 11.619543 -0.34046122
-4.74122 11.622561 -0.34138992
-4.7826829 11.621577 -0.34232247
-4.8221502 11.614593 -0.34225914
-4.8636212 11.611609 -0.34319171
-4.907093 11.612627 -0.34312016
-4.9505501 11.616645 -0.34404796
-4.9747915 11.621655 -0.34500718
-5.0162573 11.618671 -0.34493926
-5.0597205 11.620689 -0.34586704
-5.1011906 11.616707 -0.34679899
-5.1436644 11.613724 -0.34672895
-5.1871343 11.613742 -0.34765661
-5.2113614 11.620752 -0.34861511
-5.2558331 11.621771 -0.34854072
-5.2983041 11.618789 -0.34947017
-5.3407741 11.615806 -0.35039949
-5.3832417 11.612824 -0.35032865
-5.4257097 11.609842 -0.35125768
-5.4701715 11.611861 -0.35218242
-5.4916615 11.560869 -0.35015401
-5.518899 11.57088 -0.35110641
-5.558363 11.561896 -0.35104096
-5.6068287 11.570918 -0.35295734
-5.6493063 11.564937 -0.35288602
-5.6907744 11.558955 -0.35381627
-5.7362452 11.559974 -0.35473856
-5.7797141 11.556993 -0.35466465
-5.8069391 11.568006 -0.35561645
-5.8544049 11.573027 -0.35653436
-5.895884 11.564044 -0.35746437
-5.9383492 11.559063 -0.35739201
-5.9828134 11.558083 -0.35831547
-6.0342879 11.568107 -0.36022517
-6.05551 11.567115 -0.3601886
-6.1019907 11.566136 -0.36110827
-6.1484532 11.568157 -0.36202738
-6.1919231 11.563177 -0.3629525
-6.2403855 11.568199 -0.36386743
-6.285862 11.56522 -0.3647885
-6.3293324 11.559239 -0.36471331
-6.3565607 11.567251 -0.36566466
-6.4040303 11.568274 -0.36658135
-6.4494958 11.566295 -0.36750183
-6.4969683 11.566317 -0.36841834
-6.5454369 11.568339 -0.36933276
-6.588902 11.562359 -0.37025678
-6.6333737 11.556379 -0.37017891
-6.6636071 11.567394 -0.37112412
-6.7100739 11.565415 -0.37204203
-6.7585416 11.566439 -0.37295589
-6.8070135 11.566462 -0.37386975
-6.8534822 11.563483 -0.37478736
-6.9049449 11.569508 -0.37669492
-6.9494138 11.562529 -0.37661624
-7.0006266 11.609554 -0.37951952
-7.0491071 11.606579 -0.38043302
-7.1015654 11.613604 -0.3823382
-7.14604 11.604625 -0.38225925
-7.1935062 11.601648 -0.38317412
-7.2459774 11.605674 -0.38507915
-7.2934527 11.600697 -0.38599393
-7.3246722 11.612712 -0.38693634
-7.374145 11.610737 -0.38784701
-7.4226136 11.607759 -0.38875949
-7.4730868 11.606786 -0.38966796
-7.5225549 11.604809 -0.39057824
-7.569025 11.597832 -0.39149427
-7.6234989 11.60186 -0.39239457
-7.6547279 11.610875 -0.3933368
-7.7061973 11.610901 -0.39524275
-7.7546611 11.606926 -0.39615437
-7.8091335 11.609953 -0.39705431
-7.8566046 11.602977 -0.39796773
-7.9070749 11.600002 -0.39887521
-7.9615479 11.60203 -0.39977476
-7.9907765 11.607045 -0.40072051
-8.0472393 11.613074 -0.40261588
-8.0987129 11.6101 -0.403521
-8.1471891 11.602125 -0.40443191
-8.204649 11.609155 -0.40632495
-8.2571192 11.607183 -0.40722772
-8.304595 11.597206 -0.40814021
-8.344821 11.616227 -0.40906408
-8.3982897 11.615255 -0.41096461
-8.4517603 11.613283 -0.41186503
-8.501235 11.605309 -0.41277319
-8.557703 11.607339 -0.4136675
-8.5941801 11.581358 -0.41360077
-8.7485886 11.71944 -0.42230317
-16.589968 22.607676 -1.0039585
-23.184486 31.588245 -1.4870607
-23.306967 31.547321 -1.4878292
-23.428446 31.505396 -1.4895995
-23.545927 31.457468 -1.4903771
-16.973387 22.387907 -1.0052391
-23.739641 31.408588 -1.4940088
-23.861122 31.364664 -1.4947777
-11.597897 14.89199 -0.60576326
-11.843261 15.118125 -0.62028736
-11.669876 14.792031 -0.60363001
-11.556455 14.547971 -0.59285522
-11.581957 14.484986 -0.59080863
-11.538228 14.382962 -0.58589566
-11.849563 14.687136 -0.60529011
-12.001993 14.784221 -0.6119951
-11.156986 13.621758 -0.54964942
-11.175489 13.555769 -0.54761583
-11.253949 13.566813 -0.55046475
-11.711196 14.046066 -0.57857335
-11.312681 13.507847 -0.55035323
-11.141289 13.209754 -0.53469026
-11.114811 13.09274 -0.53074384
-11.162288 13.066768 -0.5306527
-11.26374 13.104825 -0.53445601
-11.369189 13.146886 -0.53925133
-11.387686 13.084897 -0.53721648
-11.982619 13.74723 -0.5760541
-12.157036 13.864328 -0.58471417
-11.88069 13.453176 -0.56325525
-12.097087 13.618299 -0.57483298
-11.764769 13.148114 -0.5494833
-12.03114 13.369265 -0.563963
-11.906714 13.142198 -0.55320662
-12.151837 13.379335 -0.56772739
-12.304273 13.465424 -0.57442945
-11.565162 12.551009 -0.523875
-11.95747 12.908233 -0.54710758
-11.492215 12.310971 -0.51401752
-11.540698 12.286001 -0.51492238
-11.574184 12.245021 -0.51385653
-11.680385 12.322082 -0.51964849
-11.439016 11.981946 -0.5021202
-11.535471 12.010003 -0.50493085
-11.582953 11.985031 -0.50583714
-11.565471 11.890022 -0.50187045
-11.723892 11.983114 -0.50955933
-12.173178 12.379373 -0.53567845
-11.476772 11.610977 -0.49104157
-11.695168 11.765102 -0.5016126
-11.771643 11.769149 -0.50446141
-11.861108 11.786201 -0.50728458
-12.674219 12.542668 -0.55468971
-12.486815 12.273563 -0.54105502
-12.472329 12.181558 -0.53808135
-12.454588 12.125548 -0.53511512
-12.465091 12.059557 -0.53409237
-12.06079 11.581326 -0.50688291
-12.608037 12.048644 -0.53780735
-12.942393 12.299839 -0.5551489
-12.810965 12.093766 -0.54540402
-12.589567 11.80364 -0.52883577
-15.540478 14.615352 -0.70504278
-15.25812 14.252192 -0.68559301
-16.287174 15.142794 -0.74356848
-15.241155 14.05619 -0.67861825
-16.549088 15.198956 -0.75304484
-13.571913 12.318226 -0.5748893
-13.631396 12.295264 -0.57576871
-13.609661 12.236253 -0.5738095
-13.718123 12.25832 -0.57759243
-16.781305 14.984116 -0.75356555
-13.827094 12.202391 -0.57937008
-14.23742 12.496634 -0.6005587
-19.5287 17.167744 -0.90414298
-19.535217 17.064756 -0.90112311
-14.218701 12.282632 -0.59358424
-14.518085 12.468812 -0.60799003
-14.40864 12.293751 -0.60020065
-14.495112 12.290805 -0.60202539
-14.580585 12.28686 -0.60485196
-14.685056 12.297925 -0.60864079
-15.054411 12.536148 -0.62690735
-14.783776 12.26499 -0.61043817
-15.097155 12.45318 -0.62581468
-15.147651 12.415215 -0.62670922
-14.92225 12.147084 -0.61214817
-14.95874 12.10011 -0.61107033
-15.088201 12.129192 -0.61680883
-15.144436 12.136228 -0.61869478
-15.235909 12.133286 -0.62150794
-15.184439 12.01326 -0.61660337
-15.212934 11.959281 -0.6155408
-15.140475 11.823243 -0.60967761
-15.143979 11.750249 -0.60766429
-16.089128 12.42382 -0.65678841
-16.279312 12.533938 -0.66640872
-15.730035 12.020613 -0.63448822
-15.773527 11.976644 -0.63439518
-15.71006 11.84961 -0.62851375
-15.79354 11.836665 -0.63134134
-15.598125 11.609551 -0.61872119
-15.897522 11.761738 -0.63312072
-15.765822 11.623661 -0.62437803
-15.851302 11.611717 -0.6272012
-15.846817 11.53172 -0.62520254
-15.929292 11.517774 -0.62703145
-16.055759 11.534856 -0.63177276
-16.296185 11.635008 -0.64228761
-16.343676 11.593042 -0.64318538
-16.35593 11.563052 -0.64315695
-19.460371 13.725955 -0.80498117
-19.467888 13.639968 -0.80295593
-19.469406 13.549976 -0.80094266
-19.474924 13.462987 -0.79892129
-16.77634 11.478336 -0.65527922
-19.479954 13.287004 -0.79389036
-19.466217 13.233 -0.7919125
-19.456734 13.138001 -0.78992087
-19.466251 13.055016 -0.78789115
-19.464767 12.966022 -0.78488344
-19.459282 12.875026 -0.78288364
-19.464798 12.791038 -0.78086185
-19.472311 12.709048 -0.77883595
-19.459578 12.657044 -0.77785593
-19.451094 12.565047 -0.77486187
-19.455606 12.482058 -0.77284187
-19.457125 12.397066 -0.77082777
-19.46764 12.31808 -0.7697956
-19.465158 12.231086 -0.76678938
-14.091327 8.7147388 -0.49251926
-14.061584 8.6657209 -0.48957497
-14.060086 8.6047249 -0.48857051
-14.036598 8.5297136 -0.48560998
-14.066097 8.4877357 -0.48554328
-14.09259 8.4447556 -0.48548266
-14.128087 8.4067822 -0.48640385
-14.136339 8.3817892 -0.48638344
-14.164834 8.3398113 -0.48631859
-14.198326 8.3008356 -0.48624367
-14.212829 8.2498484 -0.48520666
-14.275316 8.2278919 -0.48707336
-14.344799 8.20994 -0.48892593
-14.434273 8.2040005 -0.49273837
-14.523503 8.226059 -0.49655512
-20.494349 11.631848 -0.78955483
-20.631824 11.626945 -0.79426605
-20.778303 11.626046 -0.79995883
-20.913784 11.61814 -0.80467361
-21.064266 11.617246 -0.81035781
-21.196747 11.606338 -0.81507808
-21.333973 11.63943 -0.82079518
-21.470457 11.628527 -0.82550693
-21.612936 11.620627 -0.83020639
-21.768415 11.618735 -0.8358795
-21.9149 11.610839 -0.84157032
-22.073381 11.60795 -0.84723663
-22.231861 11.605061 -0.85290295
-22.366087 11.632153 -0.85862494
-22.511572 11.620255 -0.86331689
-22.681051 11.620375 -0.86996013
-22.840538 11.613487 -0.87562323
-23.00502 11.608604 -0.88227594
-23.159504 11.597714 -0.88694865
-23.325983 11.592833 -0.89359701
-23.47621 11.622934 -0.89928544
-23.654694 11.62106 -0.90590882
-23.816179 11.610177 -0.91256636
-23.989662 11.6043 -0.91819936
-24.166145 11.598426 -0.92482597
-24.343626 11.592552 -0.93145025
-24.524111 11.586681 -0.93806821
-24.684338 11.616791 -0.94473511
-24.871824 11.611925 -0.95233834
-25.054308 11.604056 -0.95895135
-25.246796 11.599195 -0.96654373
-25.418287 11.583318 -0.97217828
-25.610773 11.576456 -0.97977012
-25.844248 11.587622 -0.98827845
-25.984486 11.602719 -0.99398452
-27.6712 12.163856 -1.0695187
-27.666733 12.058867 -1.0675086
-27.655264 11.951873 -1.0655129
-27.663795 11.852892 -1.0634763
-27.670324 11.75391 -1.0624439
-27.707582 11.718942 -1.0623584
-27.7761 11.647 -1.0641996
-27.862614 11.582072 -1.066004
-20.93045 8.572484 -0.74412328
-20.94297 8.5015011 -0.7440837
-21.001472 8.4505491 -0.74495041
-28.799305 11.611744 -1.1030238
-28.845835 11.52579 -1.1039085
-29.006336 11.486911 -1.1095606
-29.237829 11.475081 -1.118067
-29.47032 11.462251 -1.1265712
-29.724815 11.456437 -1.1370299
-30.657194 11.712076 -1.1781011
-30.802441 11.713182 -1.1837929
-30.850969 11.622231 -1.1836718
-30.902496 11.532282 -1.1845446
-31.363958 11.596608 -1.2035773
-31.317503 11.468594 -1.1996502
-31.71998 11.50588 -1.2158027
-31.850502 11.441986 -1.2205124
-32.557663 11.642472 -1.2520502
-32.263245 11.42329 -1.2366314
-33.988529 11.924475 -1.3130659
-33.125202 11.500909 -1.2718149
-54.405682 18.816357 -2.229063
-54.442265 18.638416 -2.2279475
-54.566536 18.586517 -2.2316718
-54.732101 18.452662 -2.2362907
-53.445862 17.829821 -2.1758969
-53.185482 17.557676 -2.1613934
-53.036091 17.323606 -2.1526616
-52.782291 16.875498 -2.136106
-52.743584 16.77249 -2.1331663
-52.854153 16.626596 -2.1348996
-52.980724 16.484716 -2.1385994
-53.128288 16.34985 -2.1422558
-53.280853 16.214987 -2.1469018
-53.448418 16.084135 -2.1515164
-53.612988 15.952281 -2.1571372
-53.745266 15.90039 -2.161844
-53.909836 15.766536 -2.1664643
-54.075397 15.632683 -2.1710823
-26.483976 7.4866509 -0.94911742
-26.448509 7.3876395 -0.94617254
-26.45504 7.3006573 -0.94514078
-27.589718 7.4824634 -0.99376333
-27.559252 7.3824568 -0.99180746
-26.426422 6.897696 -0.93911862
-26.417955 6.807703 -0.9381181
-26.412489 6.7187123 -0.93711138
-26.391727 6.020802 -0.9280113
-26.386257 5.9338112 -0.92700499
-26.402786 5.8518362 -0.92695284
-26.425316 5.770865 -0.92688811
-26.32085 5.6628046 -0.92208827
-26.585361 5.6350045 -0.93251908
-26.808882 5.5961761 -0.94103497
-27.63163 5.6377792 -0.97529095
-51.86282 10.522986 -2.0246823
-28.718172 5.5865941 -1.0199654
-56.93433 11.010693 -2.2389722
-57.145916 10.866879 -2.2464895
-57.271214 10.797986 -2.2512071
-62.721577 11.634912 -2.4847648
-62.530197 11.396815 -2.4751208
-62.11182 11.119556 -2.4549522
-62.277428 10.948714 -2.4605615
-62.077042 10.713612 -2.4499373
-61.618359 10.535302 -2.4298766
-60.787991 10.196746 -2.3925738
-61.508579 10.121303 -2.4220204
-61.394188 9.9052591 -2.4152172
-61.145802 9.6691189 -2.4036956
-60.86042 9.4289532 -2.3902521
-60.527031 9.1837511 -2.37391
-58.583366 8.792367 -2.2899709
-60.330944 8.8656673 -2.3632591
-44.762772 6.4094453 -1.695935
-59.680168 8.3882732 -2.333544
-59.769772 8.2113762 -2.3363147
-59.754375 8.0194035 -2.3343062
-59.830982 7.8394976 -2.3361042
-59.150288 7.6560216 -2.3065166
-59.09589 7.4610195 -2.3025908
-58.686497 7.2227597 -2.2844131
-58.719101 7.0418205 -2.2843051
-58.342705 6.811584 -2.2680588
-57.144302 6.4887457 -2.2155466
-55.696888 6.1467233 -2.1525609
-55.74419 6.0637755 -2.1544428
-55.701786 5.8837795 -2.1514952
-55.23238 5.6594706 -2.1304493
-54.933971 5.4552865 -2.117043
-54.845566 5.2742558 -2.1121938
-54.648163 5.0831456 -2.103575
-54.22575 4.8728695 -2.0844324
-54.118046 4.7778072 -2.0796421
-54.113644 4.6078377 -2.0786166
-53.979237 4.4267731 -2.0728657
-53.791828 4.2426686 -2.0642278
-49.873287 3.7728045 -1.8964882
-49.822872 3.612798 -1.8935632
-49.733459 3.450763 -1.8897212
-53.266891 3.6173975 -2.0392199
-53.119488 3.4403219 -2.0324984
-48.856892 3.0071888 -1.8515011
-52.887669 3.0942166 -2.0219231
-52.851261 2.9272227 -2.0199676
-52.657848 2.7521117 -2.0113451
-52.548435 2.5820627 -2.0055447
-51.967705 2.4716458 -1.9807611
-52.309322 2.324934 -1.9950038
-51.843887 2.1426184 -1.9749604
-51.445457 1.9653529 -1.9577755
-51.396049 1.8033483 -1.9558493
-51.116627 1.6341708 -1.9434123
-51.267227 1.4793156 -1.9490614
-51.216522 1.3982937 -1.9471538
-51.298126 1.2403874 -1.9509497
-51.304722 1.0804247 -1.9509051
-51.552334 0.92564291 -1.9603477
-50.703865 0.7520358 -1.9251242
-50.694454 0.59406018 -1.9241146
-50.661045 0.43606648 -1.9221565
-50.644646 0.27808622 -1.9221621
-50.434219 0.11995829 -1.9125813
-49.543343 -0.10106172 -2.1264737
-49.726692 -0.25916815 -2.1346819
-49.839863 -0.33823764 -2.1398318
-49.977211 -0.4983092 -2.1469398
-50.139557 -0.65839916 -2.1541014
-50.365898 -0.82053727 -2.1643972
-50.519245 -0.98361987 -2.1715364
-50.721584 -1.1487392 -2.1807775
-50.861931 -1.3128119 -2.1878884
-50.954281 -1.4768479 -2.1918969
-51.06945 -1.5609177 -2.1970458
-51.160801 -1.7259526 -2.2010515
-51.256149 -1.8919909 -2.2060642
-51.357502 -2.0590334 -2.2110891
-51.470848 -2.2260847 -2.2161398
-51.542202 -2.3931038 -2.219101
-51.58638 -2.4771199 -2.2210994
-51.622738 -2.6431131 -2.2229872
-51.621101 -2.8070784 -2.2237968
-51.538475 -2.9659829 -2.2194393
-51.501839 -3.1279221 -2.2181771
-51.396217 -3.2848098 -2.2137735
-51.234608 -3.4376559 -2.2062552
-51.149799 -3.5135765 -2.2029881
-51.119167 -3.6745203 -2.2017403
-51.067543 -3.8334486 -2.1994503
-50.939922 -3.986321 -2.194005
-50.760319 -4.1341548 -2.1854551
-50.853672 -4.3041906 -2.1904621
-51.02301 -4.4812822 -2.1986237
-23.372185 -2.5767915 -0.90982431
-23.334402 -2.6097577 -0.90770698
-23.246841 -2.6756814 -0.9044469
-24.092113 -2.8482871 -0.9440555
-23.849585 -2.8980966 -0.93248338
-23.131144 -2.8885596 -0.89896351
-25.002848 -3.3188915 -0.98747301
-25.020262 -3.4018912 -0.98941827
-25.033684 -3.4858873 -0.99035406
-24.999109 -3.5618486 -0.98919666
-24.296669 -3.5433259 -0.9567216
-24.297098 -3.623313 -0.95663452
-24.193541 -3.6872251 -0.95234388
-24.260738 -3.7362671 -0.95543307
-22.980429 -3.6193295 -0.89583665
-22.990852 -3.6963248 -0.89677459
-22.987282 -3.7713101 -0.896685
-23.036699 -3.8553338 -0.8996985
-23.072113 -3.9363472 -0.90168548
-23.117319 -3.982374 -0.90473157
-23.180727 -4.0684075 -0.90777284
-46.169144 -8.1578894 -1.9912145
-17.940765 -3.2906272 -0.66147536
-46.292877 -8.4819193 -1.9981264
-32.607307 -6.1121011 -1.3545994
-19.9716 -3.850054 -0.7591874
-32.607918 -6.2730727 -1.3554269
-32.198418 -6.3017612 -1.3365259
-17.613241 -3.5543489 -0.6484952
-17.557693 -3.6023016 -0.64632577
-17.458158 -3.641223 -0.6420728
-17.445599 -3.6972063 -0.64198631
-17.416042 -3.7491775 -0.64086807
-17.420258 -3.7791767 -0.64184511
-17.422697 -3.8381705 -0.64178747
-17.485115 -3.9102073 -0.64584333
-20.327272 -4.6641984 -0.78107285
-20.326702 -4.7321882 -0.78199983
-26.898449 -6.3128099 -1.0952647
-26.635729 -6.2976174 -1.0827237
-26.50318 -6.3555098 -1.0773817
-26.503601 -6.4454956 -1.0782881
-26.840931 -6.6157179 -1.0948241
-26.478449 -6.6184483 -1.0780535
-26.475868 -6.7074318 -1.0789548
-26.501282 -6.8034353 -1.0809084
-23.791224 -6.1615324 -0.95184046
-23.731663 -6.2274785 -0.9506458
-23.430168 -6.2292557 -0.93700594
-23.238649 -6.25911 -0.92856979
-22.996143 -6.2739286 -0.9170416
-22.827614 -6.3067999 -0.91065127
-22.558121 -6.3116007 -0.89807659
-22.280416 -6.2744021 -0.88552803
-22.054909 -6.2882338 -0.87503725
-21.853392 -6.3070836 -0.86659223
-21.679871 -6.3329525 -0.85919923
-21.482359 -6.3508048 -0.84976399
-21.228865 -6.3516192 -0.83922809
-21.031139 -6.3304772 -0.82983238
-20.779648 -6.3292933 -0.81830299
-20.578138 -6.3411441 -0.80986589
-20.300652 -6.3279433 -0.79729414
-20.06716 -6.3277726 -0.78680211
-19.906637 -6.3476534 -0.77944386
-19.677143 -6.3454857 -0.76896256
-19.450436 -6.3093257 -0.75852138
-19.229937 -6.3071656 -0.74905926
-19.057421 -6.3190384 -0.74168432
-18.897911 -6.3349209 -0.73433274
-18.67342 -6.3277588 -0.72386771
-18.496914 -6.3356295 -0.71648878
-18.340395 -6.348515 -0.7101469
-18.02672 -6.2752967 -0.69456029
-17.878206 -6.2891874 -0.68823457
-17.785671 -6.3211169 -0.6850087
-17.628162 -6.3300018 -0.67766929
-17.486641 -6.3428988 -0.67235965
-9.5428286 -3.5745111 -0.28340873
-9.4523191 -3.5774484 -0.28021616
-9.4025574 -3.5764141 -0.27811289
-9.369031 -3.5993893 -0.27602029
-9.3544865 -3.6283782 -0.27596173
-9.320962 -3.6513538 -0.27486932
-9.3074255 -3.6813431 -0.27481204
-9.2948713 -3.7103331 -0.27475786
-9.3003244 -3.7473352 -0.27573368
-9.318553 -3.7723465 -0.27674779
-9.3429909 -3.8163617 -0.27875671
-9.3984251 -3.8733969 -0.28181797
-16.0994 -6.5618787 -0.61424375
-16.067854 -6.6098514 -0.61413217
-16.096281 -6.6808639 -0.61612397
-16.074509 -6.7018456 -0.61505866
-16.094946 -6.7708526 -0.61703587
-16.08839 -6.8288417 -0.61796749
-16.08083 -6.8858304 -0.61889797
-16.055281 -6.9358063 -0.61779779
-16.055721 -6.9968004 -0.61874151
-16.033167 -7.0477786 -0.61864692
-16.084373 -7.1008091 -0.62170386
-16.049822 -7.14678 -0.62158924
-16.04727 -7.2077723 -0.62252724
-16.036709 -7.2637582 -0.62245339
-16.041149 -7.327755 -0.62440336
-16.029593 -7.3837409 -0.62432778
-16.034031 -7.4477372 -0.62527806
-16.04225 -7.4827394 -0.62626302
-16.03969 -7.5437312 -0.6272018
-16.04113 -7.6067257 -0.62914717
-16.041571 -7.6697197 -0.63009065
-16.027018 -7.7257032 -0.63000965
-16.044449 -7.7967086 -0.63198131
-16.018902 -7.8476853 -0.63188243
-16.048111 -7.8937011 -0.63390118
-16.014563 -7.9406729 -0.63378966
-16.021999 -8.0076714 -0.63474482
-16.012444 -8.066659 -0.63567227
-16.03587 -8.1416674 -0.63865352
-16.080292 -8.2276907 -0.64166838
-15.982773 -8.2436199 -0.6374535
-15.996992 -8.2836266 -0.63944733
-16.012423 -8.3556309 -0.64141536
-16.004868 -8.4166193 -0.64234602
-15.99031 -8.4736032 -0.64226598
-15.978754 -8.5325899 -0.6431905
-15.991189 -8.6045904 -0.64515305
-15.983635 -8.6665802 -0.64608353
-15.995848 -8.7055836 -0.64707458
-15.986293 -8.766571 -0.64800209
-16.023716 -8.8525896 -0.65100414
-15.991171 -8.9015617 -0.6508953
-16.028593 -8.9885798 -0.65389693
-16.05302 -9.0685892 -0.65687811
-16.089441 -9.1556053 -0.65987796
-16.087662 -9.1886015 -0.66084617
-16.192053 -9.314662 -0.66795158
-16.109529 -9.3366032 -0.66476482
-16.097971 -9.3975897 -0.66568965
-16.077421 -9.4545698 -0.6655997
-16.083858 -9.5275679 -0.6675514
-10.322769 -6.2279072 -0.36361763
-10.255259 -6.2338619 -0.36047566
-10.184739 -6.2368155 -0.35833016
-10.110221 -6.2367663 -0.35517922
-10.03871 -6.238719 -0.35203281
-9.9731932 -6.2436757 -0.34989616
-9.9026737 -6.2446294 -0.34675276
-9.8399315 -6.2285891 -0.34363919
-9.7664175 -6.227541 -0.34149161
-9.7418871 -6.2565236 -0.34041846
-9.4724741 -6.1333528 -0.32697555
