# .PCD v0.7 - Point Cloud Data file format
VERSION 0.7
FIELDS x y z
SIZE 4 4 4
TYPE F F F
COUNT 1 1 1
WIDTH 1476
HEIGHT 1
VIEWPOINT 0 0 0 1 0 0 0
POINTS 1476
DATA ascii
4.8684597 5.8853369 -0.89697003
4.8589344 5.913332 -0.89897603
4.8554244 5.947329 -0.90198123
4.8681855 5.9803305 -0.90698177
4.8626637 6.0133266 -0.90998727
4.8521585 6.0393224 -0.91199338
4.8486471 6.0743189 -0.91599864
4.8501263 6.1163168 -0.92100334
4.8506193 6.1563144 -0.92500806
4.8583565 6.1863146 -0.92900944
4.8558483 6.2233119 -0.93301463
4.8613291 6.2713103 -0.93901885
4.8648214 6.316309 -0.94402325
4.8603053 6.3523054 -0.9480288
4.8348002 6.3612976 -0.94703698
4.8302889 6.397294 -0.95004255
4.8350325 6.424294 -0.9540444
4.8355069 6.4682913 -0.9590494
4.8329997 6.5072885 -0.96305472
4.8324909 6.5492864 -0.96805978
4.8299909 6.5882831 -0.97206503
4.8284621 6.6312799 -0.97707045
4.8239498 6.6692767 -0.98107618
4.82969 6.6992764 -0.98407793
4.8291759 6.7432737 -0.99008322
4.8256774 6.7822709 -0.99408865
4.8151541 6.8142662 -0.99709535
4.8166475 6.8612638 -1.0021003
4.8151226 6.906261 -1.0071058
4.8156209 6.9522586 -1.0131109
4.828352 6.9942598 -1.0181119
4.8288364 7.0422578 -1.0241172
4.8163238 7.0722523 -1.0271242
4.8158007 7.1202493 -1.0321296
4.8102918 7.1602459 -1.0361357
4.8057914 7.2012424 -1.0411415
3.9894171 6.0650558 -0.84325528
3.6533709 5.8939533 -0.7973448
3.6118689 5.8709407 -0.79135603
3.5993569 5.8929343 -0.79236346
3.5648453 5.8809228 -0.78937387
3.5323431 5.8709121 -0.78538388
3.4670777 5.8708882 -0.78040713
3.4385574 5.8678775 -0.77841699
3.4270523 5.8908715 -0.78042436
3.3795435 5.8558564 -0.77243668
3.3580451 5.8618479 -0.77144533
3.3507926 5.8708444 -0.77244931
3.3272655 5.8758349 -0.77145863
3.3067737 5.8828263 -0.77046716
3.2892573 5.8968186 -0.77147561
3.2577581 5.8858075 -0.76748574
3.2252345 5.8747959 -0.76349646
3.2167442 5.9017901 -0.76650339
3.1994662 5.8957839 -0.76450908
3.1779728 5.9007754 -0.76351792
3.1654508 5.9237685 -0.76552588
3.1209526 5.8887539 -0.75853795
3.1044526 5.9027457 -0.75954622
3.0719476 5.8887343 -0.75555676
3.0574298 5.9077268 -0.75656503
3.0401776 5.8987207 -0.75457048
3.0246627 5.9157128 -0.75557894
3.007153 5.9287047 -0.75558758
2.9676495 5.900691 -0.74959916
2.9591455 5.9296851 -0.75260657
2.9406254 5.9416761 -0.75361556
2.9333854 5.9496732 -0.75361955
2.9028697 5.9386611 -0.7506302
2.8793652 5.9396515 -0.7486397
2.6387303 6.0845366 -0.75275826
2.620234 6.0945282 -0.75376737
2.5368755 6.3634696 -0.78383845
2.4657753 7.4423652 -0.9229998
1.66917 6.9310188 -0.82129878
1.6476651 6.9390073 -0.82130992
1.4205844 6.979888 -0.81942439
1.4010658 6.9988766 -0.82143605
1.3775777 6.9958649 -0.82044733
1.3613157 6.978857 -0.81745356
1.3407972 6.993845 -0.81846535
1.3112922 6.9678307 -0.81447726
1.2877884 6.9668183 -0.8134889
1.2642939 6.9638062 -0.81250042
1.2447833 6.9817948 -0.81451201
1.2242718 6.9957833 -0.81552386
1.2020261 6.9457736 -0.80852991
1.1865045 6.9847631 -0.81354177
0.45069849 11.496242 -1.4362673
0.41319326 11.482223 -1.4332839
0.3766816 11.486204 -1.4343015
0.34016538 11.494184 -1.4343194
0.30366403 11.488166 -1.4333363
0.26614788 11.482146 -1.4323537
0.24788925 11.487137 -1.4333627
0.21138753 11.480118 -1.4323798
0.17487732 11.482099 -1.4323974
0.13836804 11.483079 -1.432415
0.10085073 11.47606 -1.4314326
0.064341046 11.477039 -1.4314502
0.027828528 11.48202 -1.4314682
0.0095825568 11.469011 -1.4294764
-0.022993201 11.670991 -1.458505
-0.063438177 11.471972 -1.429512
-0.099952623 11.481952 -1.4315305
-0.13645932 11.476933 -1.4305481
-0.17296953 11.478913 -1.4305662
-0.20947787 11.476892 -1.430584
-0.22772911 11.467883 -1.4295924
-0.26424026 11.471864 -1.4296106
-0.30074751 11.463843 -1.4286282
-0.33827591 11.482823 -1.431648
-0.37376854 11.470803 -1.429665
-0.4102681 11.404784 -1.4206793
-0.4488264 11.570762 -1.4437083
-0.47115779 11.831748 -1.4807343
-0.50459892 11.595731 -1.4477375
-0.64862937 16.361629 -2.12308
-0.70621461 16.584599 -2.1551194
-0.61512464 11.58867 -1.4477926
-0.81123883 16.590546 -2.1561677
-0.67190194 11.632637 -1.4538237
-0.90615177 17.017494 -2.2172356
-0.74491501 11.591597 -1.4488585
-1.4455562 27.065186 -3.6430421
-0.81994528 11.604554 -1.4508973
-1.6105523 26.929108 -3.6241043
-0.89396167 11.610513 -1.4519354
-1.7413504 26.991045 -3.6341634
-0.94871956 11.599481 -1.450963
-1.9164132 27.04896 -3.6442413
-1.025753 11.646437 -1.458005
-2.0834303 26.972879 -3.6343088
-1.100783 11.641395 -1.4580436
-2.2494445 26.906797 -3.627377
-1.1545322 11.621363 -1.4560704
-2.3752143 26.867737 -3.6234295
-1.2305654 11.631319 -1.4581106
-2.5301878 26.68066 -3.5984871
-1.3055871 11.635275 -1.4601499
-2.7012312 26.697577 -3.6025629
-1.3826156 11.65923 -1.4641914
-2.8290114 26.697512 -3.6046193
-2.9014876 26.562475 -3.5866444
-2.9880142 26.576433 -3.5896835
-3.0725303 26.58139 -3.5917213
-1.5478983 11.627132 -1.4622773
-1.5833951 11.615111 -1.4612957
-1.6209106 11.611089 -1.4613156
-2.4425306 18.554689 -2.4520345
-2.5110714 18.629654 -2.4640708
-2.6491535 18.772579 -2.4861434
-2.7431064 18.572527 -2.4601796
-2.7997971 18.323492 -2.4261961
-2.9158173 18.309429 -2.4262519
-3.0238199 18.239368 -2.4193017
-3.1348355 18.188307 -2.4143541
-3.2115757 18.118261 -2.4063892
-2.3856099 12.464643 -1.5967568
-2.4145255 12.160619 -1.554763
-2.3648589 11.654637 -1.482721
-2.5003421 12.30557 -1.5768141
-2.5392807 12.079539 -1.546829
-2.5026574 11.669551 -1.4887975
-2.6142919 12.055492 -1.5458695
-2.5846825 11.696501 -1.4948438
-2.7021179 12.193441 -1.5669216
-2.6424522 11.692464 -1.495876
-2.6669297 11.625446 -1.4868881
-2.7314932 11.747409 -1.505927
-2.7439561 11.621398 -1.4889311
-2.7564144 11.501385 -1.4729357
-2.7959247 11.50736 -1.4749581
-2.8121762 11.493349 -1.472967
-2.8526936 11.501324 -1.47499
-2.891206 11.500299 -1.4770118
-2.927705 11.494275 -1.4770324
-2.9712291 11.513247 -1.4810574
-3.0047255 11.493226 -1.4790761
-3.0452404 11.500199 -1.4810994
-3.0685074 11.514185 -1.4841129
-3.1050093 11.506161 -1.4841336
-3.2947338 12.122064 -1.575251
-3.2891741 11.93606 -1.549245
-3.3497179 12.014025 -1.5622805
-3.5184128 12.512937 -1.6373832
-3.3696525 11.776001 -1.5302887
-3.4019241 11.822982 -1.5383078
-3.3823566 11.594985 -1.506294
-3.4368773 11.653952 -1.5163261
-3.4763954 11.649925 -1.5173488
-3.5289128 11.698894 -1.5263796
-3.5954645 11.791854 -1.5414187
-3.6309686 11.773829 -1.540439
-3.650214 11.772817 -1.5404501
-3.7007427 11.805785 -1.5474797
-3.7042067 11.676776 -1.5294809
-3.7316902 11.635756 -1.5254966
-3.7762127 11.647726 -1.5285226
-3.8257318 11.678696 -1.5345517
-3.9853826 12.072611 -1.594646
-4.2118859 12.747498 -1.69578
-3.9480274 11.746617 -1.5496233
-3.956497 11.642606 -1.5356281
-4.0470624 11.801555 -1.5606812
-4.0555401 11.696542 -1.5466862
-4.1000519 11.707513 -1.5507123
-4.148572 11.729482 -1.5557408
-4.2018666 11.828451 -1.5707721
-4.1863065 11.656451 -1.5477633
-4.3079081 11.896385 -1.5848342
-4.3624334 11.932349 -1.5928662
-4.3558841 11.790345 -1.572863
-4.3853755 11.755322 -1.5698805
-4.4148808 11.717299 -1.5658982
-4.4311247 11.705289 -1.564908
-4.4706326 11.698261 -1.5659314
-4.5081396 11.685234 -1.5659539
-4.542634 11.666209 -1.5649747
-4.565124 11.61219 -1.5589885
-4.6176519 11.639156 -1.5650196
-4.6359015 11.632142 -1.5650307
-4.6764069 11.628115 -1.5670549
-4.7058959 11.596092 -1.564073
-4.7484131 11.595062 -1.5660985
-4.7849197 11.579036 -1.5661206
-4.8194118 11.561011 -1.5651417
-4.8559194 11.544984 -1.565164
-4.8751721 11.539969 -1.5651757
-4.9076757 11.513946 -1.5631957
-4.9451776 11.501919 -1.5642185
-4.9846859 11.49389 -1.5652426
-5.0221834 11.482863 -1.5652655
-5.0646896 11.482833 -1.5682914
-5.1081986 11.484803 -1.5703177
-5.1294508 11.484788 -1.5713307
-5.1689649 11.474759 -1.5723549
-5.2194839 11.491725 -1.5773853
-5.2579832 11.481697 -1.5784091
-5.3014903 11.482667 -1.5804355
-5.3429999 11.477636 -1.582461
-5.3855119 11.474606 -1.584487
-5.4270101 11.471576 -1.5865126
-5.4572806 11.488556 -1.5905306
-5.4987869 11.483526 -1.5925561
-5.5382876 11.474497 -1.5935806
-5.5858026 11.481464 -1.5966096
-5.6232972 11.468436 -1.5976329
-5.6688151 11.469403 -1.6006609
-5.6930637 11.475388 -1.6026757
-5.7395811 11.478354 -1.6057042
-5.7810836 11.472323 -1.6077299
-5.8316031 11.483288 -1.6117607
-5.8681021 11.46626 -1.6117839
-5.9156137 11.471227 -1.615813
-5.9611158 11.473194 -1.6188411
-5.9843779 11.473177 -1.6198555
-6.0328856 11.480144 -1.6238852
-6.0763865 11.477112 -1.6269122
-6.1158943 11.464081 -1.6269373
-6.1634068 11.467048 -1.6309665
-6.2099061 11.470015 -1.6339953
-6.2564249 11.46898 -1.6370243
-6.2836833 11.476961 -1.6400409
-6.3341899 11.485926 -1.6440719
-6.3847003 11.49389 -1.6481031
-6.4312172 11.491855 -1.6511321
-6.4787221 11.493821 -1.6551616
-6.5212197 11.48679 -1.6571884
-6.5677328 11.484755 -1.6592175
-6.5999928 11.500733 -1.6642369
-6.6384931 11.484703 -1.6642616
-6.6880116 11.486668 -1.6682925
-6.7405162 11.49663 -1.6733249
-6.7860274 11.491595 -1.6753536
-6.8255286 11.476565 -1.6763791
-6.8750286 11.480529 -1.6804099
-6.9142971 11.506503 -1.6864332
-5.3456688 8.685318 -1.2285895
-5.3271451 8.5883188 -1.2155842
-5.3176184 8.5093136 -1.2045836
-5.327107 8.4632998 -1.1995934
-5.3375893 8.4202852 -1.1956037
-5.35709 8.3912659 -1.192619
-5.3613396 8.3672581 -1.1906238
-5.3788314 8.3362408 -1.1876379
-5.3923254 8.2982244 -1.1846501
-5.4047995 8.2612076 -1.1806614
-5.4243007 8.2331886 -1.178677
-5.4468045 8.2101669 -1.177694
-5.4743037 8.1961432 -1.1777138
-5.4955578 8.2011271 -1.1807276
-5.5090451 8.1651106 -1.1767398
-5.5465493 8.1670809 -1.179765
-5.5740552 8.1520576 -1.1807849
-5.6165657 8.161025 -1.1848128
-5.6560655 8.1659946 -1.187839
-5.6925812 8.1639643 -1.190864
-5.7028227 8.1519556 -1.1898719
-5.7893672 8.2258987 -1.2059238
-7.9501839 11.433723 -1.7540909
-7.9966888 11.424686 -1.7571208
-8.049202 11.423647 -1.7611544
-10.781414 15.389155 -2.444629
-8.2532825 11.567514 -1.7942744
-10.760102 15.200147 -2.4206252
-10.76357 15.102133 -2.4096322
-10.746021 14.975128 -2.3926277
-10.766501 14.903104 -2.3866444
-8.5025711 11.574327 -1.8154323
-10.770431 14.710076 -2.363657
-10.751653 14.63408 -2.3536496
-10.745113 14.52707 -2.3406515
-10.75359 14.441052 -2.3316615
-8.7448406 11.566142 -1.8335869
-10.757525 14.255025 -2.3106747
-10.75699 14.160011 -2.2996798
-10.750456 14.057002 -2.2876821
-10.744685 14.002998 -2.2806816
-9.0141354 11.585941 -1.858757
-10.745623 13.819972 -2.2596936
-10.764099 13.753948 -2.2537093
-10.746555 13.640945 -2.2397058
-10.755032 13.561927 -2.2317162
-10.759504 13.478912 -2.2227247
-10.739723 13.409916 -2.2127168
-9.3784275 11.568661 -1.8879907
-10.74467 13.240888 -2.1947315
-10.747136 13.158873 -2.185739
-10.749611 13.075858 -2.1767464
-10.751086 12.991844 -2.1677532
-10.738545 12.892838 -2.1557527
-10.735779 12.847833 -2.1497543
-10.737726 12.683805 -2.1317677
-10.728184 12.591798 -2.120769
-10.739665 12.523778 -2.1147814
-10.74514 12.449761 -2.1067908
-10.737608 12.360753 -2.0967929
-10.729845 12.310751 -2.0907924
-10.721306 12.222742 -2.0797939
-10.727777 12.152725 -2.0728037
-10.462119 11.762862 -2.0066674
-10.713718 11.980707 -2.0528092
-10.433047 11.579854 -1.9846647
-10.586601 11.681753 -2.0097539
-10.528811 11.57778 -1.9927263
-10.585311 11.568734 -1.9967632
-10.643809 11.561687 -2.0018015
-10.711325 11.562635 -2.0088446
-10.717798 11.496618 -2.0018549
-10.729281 11.435599 -1.9968678
-10.794785 11.435548 -2.0029099
-10.838037 11.447516 -2.0079365
-10.906545 11.449464 -2.0149806
-10.96305 11.437418 -2.0190179
-11.067575 11.477345 -2.0330813
-11.151086 11.494283 -2.0431333
-11.195583 11.468244 -2.0451643
-11.249847 11.489204 -2.0521972
-11.316355 11.486153 -2.0582402
-11.34884 11.44812 -2.0572646
-11.393332 11.42208 -2.0592959
-11.435823 11.394042 -2.0603259
-11.467314 11.35401 -2.0593503
-11.50881 11.323972 -2.0603797
-11.544296 11.288938 -2.0604062
-11.548531 11.257928 -2.0584123
-11.583024 11.220895 -2.0574381
-11.638518 11.205848 -2.0614755
-11.660006 11.155821 -2.0594945
-11.698492 11.123785 -2.0595226
-11.736985 11.090748 -2.0605507
-11.769478 11.051714 -2.059576
-11.790721 11.037695 -2.060591
-11.833215 11.008657 -2.0616217
-11.866699 10.971622 -2.0616474
-11.903192 10.936586 -2.0616746
-11.949683 10.911545 -2.0647073
-11.970167 10.861519 -2.0617261
-11.991409 10.847499 -2.0627413
-12.028901 10.813462 -2.0627694
-12.060385 10.774429 -2.062794
-12.107882 10.749387 -2.0648274
-12.15237 10.722346 -2.0668592
-12.174856 10.674318 -2.0648792
-12.204341 10.633286 -2.0639029
-12.21759 10.610271 -2.0629141
-12.254074 10.576235 -2.0639417
-12.263553 10.517215 -2.0589547
-12.309047 10.490172 -2.0609872
-12.332527 10.444144 -2.060008
-12.355011 10.397117 -2.058028
-12.41551 10.383065 -2.0630689
-12.398735 10.336068 -2.0560637
-12.443227 10.308026 -2.0590959
-12.482722 10.274988 -2.0601254
-12.502202 10.225962 -2.0571439
-12.546692 10.19792 -2.0601764
-12.589176 10.16888 -2.0612073
-12.630668 10.137839 -2.0632381
-12.640907 10.113827 -2.0622478
-12.691403 10.089781 -2.0652833
-12.69188 10.024765 -2.060292
-11.315842 8.841589 -1.8025461
-11.380342 8.8365355 -1.8085892
-11.333797 8.7425499 -1.7955714
-11.301266 8.6595564 -1.7845616
-11.515585 8.8014183 -1.820683
-11.494052 8.7274179 -1.8116791
-11.646585 8.7903099 -1.8337708
-11.854139 8.8941689 -1.8668928
-12.43082 9.2827997 -1.9652177
-11.936116 8.8420897 -1.8709539
-11.959601 8.8020611 -1.8699749
-11.798787 8.6501522 -1.8388904
-12.438484 9.0777445 -1.9482505
-11.954786 8.6550283 -1.8569924
-11.954268 8.5970144 -1.8520002
-12.078785 8.6329231 -1.869077
-12.170297 8.6428509 -1.8801355
-12.149763 8.5708504 -1.8721324
-12.144001 8.5378466 -1.8691335
-12.133471 8.4738388 -1.8621356
-12.154956 8.4328098 -1.8611559
-12.002386 8.2668915 -1.8300799
-11.836808 8.0939798 -1.7959965
-11.810277 8.0209827 -1.7869902
-11.931549 8.0798998 -1.8060611
-11.945032 8.0348768 -1.8040768
-11.94951 7.9838595 -1.8000876
-12.055029 8.0017786 -1.8141543
-11.985476 7.9008083 -1.7981238
-11.989959 7.849791 -1.7941347
-11.875401 7.7188487 -1.7700795
-12.071699 7.824718 -1.8021924
-12.182207 7.845634 -1.8162619
-12.254701 7.8405743 -1.8243104
-12.103132 7.686655 -1.7942346
-12.187639 7.6885872 -1.8042901
-12.058083 7.5506549 -1.7782265
-12.221604 7.6045365 -1.8023256
-12.128813 7.5185881 -1.7842783
-12.23533 7.5335054 -1.7983459
-12.348827 7.554419 -1.8134173
-12.288295 7.4624429 -1.7993922
-12.159736 7.3295102 -1.773329
-12.248235 7.3334394 -1.7843868
-12.212704 7.2594471 -1.7743754
-12.25696 7.2604113 -1.7804044
-12.279436 7.2233829 -1.7804253
-12.238902 7.1473942 -1.7694111
-12.244384 7.0993762 -1.7664226
-12.117821 6.973443 -1.7423602
-12.067292 6.8924608 -1.7303407
-12.198805 6.9203615 -1.7484226
-12.254053 6.928319 -1.7554576
-12.098489 6.787405 -1.7263792
-12.121975 6.7513752 -1.7264009
-12.268492 6.7862654 -1.7464913
-12.24797 6.7242641 -1.7394884
-12.207433 6.652276 -1.7294742
-12.209913 6.60426 -1.7264841
-12.325173 6.6451778 -1.7435528
-12.29464 6.5791831 -1.7355441
-12.240111 6.4992037 -1.7235223
-12.244589 6.4531865 -1.7205333
-12.27407 6.4211526 -1.7215583
-12.416578 6.4500446 -1.7416469
-12.061746 6.2332692 -1.682452
-12.369288 6.3510537 -1.7286333
-12.20473 6.215147 -1.6995493
-12.26622 6.2000918 -1.7055925
-12.24969 6.1440883 -1.7005917
-12.025117 5.9802213 -1.6614738
-12.200635 6.0240912 -1.6865811
-12.363914 6.0839763 -1.7106775
-12.288375 5.9980116 -1.6956435
-12.252845 5.9330201 -1.686632
-12.172304 5.8460588 -1.6705953
-12.201793 5.8140249 -1.6726205
-12.112247 5.7240696 -1.6555785
-12.267761 5.753952 -1.677675
-12.446035 5.8178258 -1.7037801
-12.470518 5.782795 -1.7048024
-12.571011 5.7847133 -1.7178679
-12.076393 5.502028 -1.6365968
-12.64099 5.7226367 -1.7229251
-12.817499 5.7585039 -1.7480338
-12.578688 5.6236563 -1.7089028
-12.679184 5.6235743 -1.7219685
-12.504628 5.4966764 -1.6918782
-12.593125 5.490602 -1.7029371
-12.848641 5.5604157 -1.7400908
-12.888132 5.5303741 -1.743122
-12.651565 5.3785181 -1.7039965
-12.744822 5.3964477 -1.7170539
-12.570269 5.2735505 -1.6869633
-12.677757 5.2754631 -1.7010331
-12.233164 5.0377479 -1.629789
-16.096329 6.6411238 -2.2239974
-16.122803 6.5940881 -2.2250218
-12.615659 5.0664449 -1.6810329
-16.16552 6.5240326 -2.227061
-16.193993 6.4779954 -2.2280867
-13.022916 5.1211314 -1.7372869
-13.074407 5.0950809 -1.7433252
-16.285418 6.3408804 -2.232168
-16.285889 6.2828622 -2.229178
-16.296354 6.2298374 -2.2281935
-16.245583 6.1808634 -2.2181695
-16.35207 6.1647735 -2.23224
-16.401552 6.1257215 -2.2362781
-16.469025 6.0946579 -2.2433267
-16.501503 6.0486174 -2.2453549
-16.546974 6.0085688 -2.2493906
-16.58745 5.9655223 -2.2524235
-16.615692 5.9464941 -2.2554448
-16.658165 5.9044471 -2.2594788
-16.697636 5.8614016 -2.2625113
-16.707109 5.8063769 -2.2605269
-16.750582 5.7643294 -2.2645614
-16.752048 5.7073102 -2.2625721
-16.763521 5.6532841 -2.2605886
-16.788759 5.6332574 -2.2636082
-16.820232 5.5862179 -2.265636
-16.860708 5.5421715 -2.2686691
-16.875181 5.4891429 -2.2686875
-16.888641 5.4371157 -2.267705
-16.927116 5.3920708 -2.2707369
-16.93235 5.3650579 -2.270745
-16.962826 5.3170185 -2.2727723
-16.979294 5.2649884 -2.2727919
-16.994761 5.2129598 -2.2718105
-17.009232 5.1599312 -2.2718289
-17.020702 5.1059046 -2.2708454
-17.031164 5.0528793 -2.2698615
-17.037401 5.025866 -2.26987
-17.013865 4.961864 -2.2638662
-17.011335 4.9038472 -2.2608747
-17.000803 4.8438363 -2.2578785
-16.982269 4.7818308 -2.2518775
-16.957729 4.7188301 -2.2468731
-16.9692 4.6658039 -2.2458897
-16.972431 4.6387925 -2.2448964
-16.987902 4.5867634 -2.2449152
-17.033379 4.5427122 -2.2499516
-17.012836 4.481709 -2.2449493
-17.121317 4.4546137 -2.2590222
-17.246798 4.4315057 -2.2751052
-17.261259 4.379477 -2.2751234
-17.262493 4.3514671 -2.2741292
-17.205954 4.280489 -2.2641063
-17.177422 4.2164907 -2.2580996
-17.163883 4.1574821 -2.2541015
-17.15835 4.1004677 -2.2511082
-17.148815 4.0424562 -2.2471125
-17.148283 3.986438 -2.245122
-17.118515 3.9514499 -2.2401094
-17.107983 3.8934391 -2.237113
-17.10145 3.8364253 -2.2341194
-17.113914 3.7843978 -2.2341363
-17.107384 3.7273839 -2.2311425
-17.087845 3.6683798 -2.2271407
-17.081078 3.6393754 -2.2251418
-17.065544 3.5813682 -2.2211425
-17.062012 3.5253522 -2.2191503
-17.063478 3.471333 -2.2171607
-17.04994 3.4143243 -2.2141626
-17.051407 3.3603051 -2.2121732
-17.052872 3.3062854 -2.211184
-17.007101 3.2703099 -2.2031617
-17.018568 3.2182832 -2.2031784
-17.00704 3.1612728 -2.2001815
-16.994503 3.1052635 -2.1971838
-16.976967 3.0482581 -2.1931832
-16.975433 2.994241 -2.1911922
-16.963902 2.938231 -2.1881952
-16.932131 2.906245 -2.183181
-16.9256 2.8512313 -2.1811869
-16.894066 2.7922359 -2.1751783
-16.891529 2.7392197 -2.1731863
-16.874994 2.6832135 -2.1701863
-16.862461 2.6282046 -2.1661885
-16.859922 2.5751882 -2.1651967
-16.844156 2.5461905 -2.1621921
-16.81562 2.4891934 -2.1571848
-16.816092 2.4361749 -2.155195
-16.806557 2.3821635 -2.153199
-16.785017 2.3271613 -2.1491957
-16.763489 2.2711589 -2.1451926
-16.782949 2.2221265 -2.1462135
-16.751188 2.1911409 -2.1411996
-16.744654 2.1381273 -2.1392055
-16.738121 2.085114 -2.1372111
-16.709579 2.0301173 -2.1322036
-16.693047 1.9761112 -2.1292033
-16.695517 1.9240911 -2.1282144
-16.682981 1.8710824 -2.1252162
-16.662212 1.8430887 -2.1222088
-16.664675 1.7920688 -2.1222198
-16.637146 1.7370712 -2.117213
-16.633614 1.6850556 -2.1152203
-16.633074 1.634038 -2.1152294
-16.601545 1.5790434 -2.1092203
-16.601009 1.5280257 -2.1082292
-16.581238 1.5010318 -2.105222
-16.560703 1.4480289 -2.1022191
-16.546167 1.396022 -2.09922
-16.547636 1.3450028 -2.0982301
-16.516108 1.2910082 -2.0932209
-16.493568 1.2390074 -2.0892167
-16.493797 1.2139983 -2.0892215
-16.478266 1.1619918 -2.0862217
-16.45673 1.1099901 -2.0832181
-16.462194 1.059968 -2.0832307
-16.436668 1.0069691 -2.0792248
-16.432129 0.95695472 -2.0782313
-16.441597 0.90692955 -2.0782464
-16.399824 0.87995249 -2.0722258
-16.397297 0.82893616 -2.0712337
-16.41976 0.77990103 -2.0742564
-16.38722 0.72890812 -2.0692461
-16.367687 0.67790502 -2.0662436
-16.367151 0.62788761 -2.0652523
-16.349621 0.57688284 -2.0632513
-16.328857 0.55088961 -2.0602434
-16.315321 0.50088221 -2.0572445
-16.350784 0.451837 -2.0622747
-16.30125 0.40085709 -2.0552542
-16.284716 0.35085195 -2.0522532
-16.26318 0.30085063 -2.0492494
-16.236647 0.25085318 -2.0452428
-16.236881 0.22584398 -2.0452473
-16.212349 0.175845 -2.0412419
-16.19381 0.12684155 -2.0392396
-16.19828 0.076820068 -2.0392513
-16.192741 0.027806651 -2.0382571
-15.200844 0.015216809 -2.0097275
-15.209391 -0.034795463 -2.0107441
-15.217653 -0.058798134 -2.0117495
-15.220198 -0.10881507 -2.0117698
-15.239732 -0.15781836 -2.0147793
-15.241276 -0.20783605 -2.0148003
-15.237809 -0.25685716 -2.0148237
-15.274349 -0.30684763 -2.0198236
-15.274621 -0.33185685 -2.0198343
-15.278163 -0.38187286 -2.0208538
-15.282694 -0.43088785 -2.0208721
-15.296232 -0.48089615 -2.0228858
-15.300773 -0.53091139 -2.0239046
-15.309313 -0.58092338 -2.0259211
-15.327858 -0.63192821 -2.0279319
-15.349122 -0.65692091 -2.0319297
-15.35066 -0.70693851 -2.0319505
-15.207455 -0.77507573 -2.0120668
-15.209997 -0.82509249 -2.013087
-15.201534 -0.87411755 -2.0121133
-15.209063 -0.9231301 -2.0131299
-15.226607 -0.97413546 -2.0161412
-15.227149 -1.0241538 -2.0171626
-15.236414 -1.049156 -2.0181675
-15.260951 -1.1001558 -2.0221744
-15.259493 -1.1501757 -2.0221968
-15.259023 -1.1991943 -2.0232184
-15.273104 -1.3002208 -2.0262527
-15.275371 -1.3252286 -2.026262
-15.295915 -1.3772317 -2.030272
-15.289447 -1.4262551 -2.0292966
-15.298987 -1.4772667 -2.0313127
-15.316529 -1.5292722 -2.0343242
-15.308064 -1.5782969 -2.0343502
-15.311597 -1.6283128 -2.0353692
-15.326871 -1.6553108 -2.0373714
-15.332411 -1.7063253 -2.0393896
-15.346952 -1.7583331 -2.0424027
-15.361491 -1.8103409 -2.0444157
-15.368028 -1.8613546 -2.0464334
-15.368559 -1.9113727 -2.0474541
-15.376103 -1.9633858 -2.0494714
-15.381373 -1.9893912 -2.0504792
-15.400913 -2.0423954 -2.0544894
-15.405447 -2.0934105 -2.0555079
-15.418981 -2.1454191 -2.0585215
-15.414525 -2.1964412 -2.0585456
-15.419058 -2.2474563 -2.0605643
-15.520616 -2.3134 -2.0755291
-15.53488 -2.3403986 -2.0785315
-15.504413 -2.38744 -2.0745699
-15.449942 -2.4304986 -2.0686216
-15.276445 -2.4546449 -2.044739
-15.171962 -2.4887404 -2.0308182
-15.130494 -2.5327892 -2.025862
-15.100021 -2.5778301 -2.0228999
-15.070283 -2.5978611 -2.0189266
-15.046823 -2.6448967 -2.0169606
-14.842313 -2.6590648 -1.9890938
-13.786654 -2.523855 -1.8386937
-13.691169 -2.5529423 -1.8257657
-13.623682 -2.5860085 -1.8178219
-13.481185 -2.6051297 -1.7979192
-13.343427 -2.6022387 -1.7790041
-13.083284 -3.1306465 -1.7573922
-13.102817 -3.1796489 -1.7624005
-13.110353 -3.2266607 -1.7644156
-13.133883 -3.2766602 -1.7694217
-13.175431 -3.3326476 -1.7764192
-13.174961 -3.3776646 -1.7784382
-14.304486 -3.6798658 -1.9428514
-14.397037 -3.7518172 -1.9578226
-14.410574 -3.8048253 -1.9618356
-14.406112 -3.8538463 -1.9628582
-14.37564 -3.8958859 -1.9598944
-14.367167 -3.9429095 -1.9609187
-11.330968 -3.1800833 -1.5195243
-11.156182 -3.1522148 -1.4946239
-10.997676 -3.1483426 -1.4727235
-10.982193 -3.1823688 -1.4717484
-10.736664 -3.1525574 -1.4368926
-10.877227 -3.2304733 -1.4588367
-10.993771 -3.3014057 -1.4777927
-10.926291 -3.3214686 -1.4698447
-10.788518 -3.3005731 -1.4499242
-10.927076 -3.3794904 -1.4718695
-10.971612 -3.4314742 -1.4798634
-10.955133 -3.4655011 -1.4788886
-10.918652 -3.4935417 -1.4749241
-10.995203 -3.5565031 -1.4879019
-10.798679 -3.534656 -1.4610192
-10.861957 -3.5736189 -1.4709952
-10.869479 -3.6146288 -1.4730078
-10.737973 -3.6117356 -1.4560915
-10.875531 -3.6946542 -1.4780382
-10.899064 -3.741653 -1.483043
-10.642529 -3.696847 -1.4461896
-10.648788 -3.7178497 -1.4481945
-10.654308 -3.7578604 -1.4502081
-10.809881 -3.8497674 -1.4751465
-9.674099 -3.4995704 -1.3077331
-9.8026419 -3.578495 -1.3286837
-9.97822 -3.6763875 -1.356612
-9.5076141 -3.5467274 -1.2878627
-9.550889 -3.5797045 -1.2948488
-8.9312353 -3.3921461 -1.2041724
-9.3678818 -3.5838585 -1.2709706
-8.9993086 -3.4841263 -1.2171687
-10.467247 -4.0601296 -1.4394575
-10.289726 -4.0332665 -1.4145615
-8.9658604 -3.57219 -1.21723
-8.8980999 -3.5632432 -1.2072707
-8.8716106 -3.5862746 -1.2052984
-8.8191147 -3.599324 -1.1993389
-8.7696209 -3.6133711 -1.1933779
-8.7161245 -3.625421 -1.1864188
-8.6936531 -3.65045 -1.1854448
-8.6571569 -3.668488 -1.181477
-8.6334105 -3.6755109 -1.1784958
-8.6279173 -3.7055275 -1.1795127
-8.6204367 -3.7355459 -1.179531
-8.6159687 -3.7675624 -1.1805481
-8.5954895 -3.7925894 -1.1795727
-8.5879917 -3.8216074 -1.1805905
-8.6195278 -3.8685997 -1.18659
-8.6397896 -3.8935924 -1.1905874
-8.7113428 -3.9585574 -1.203568
-8.5978184 -3.942647 -1.1876366
-8.827426 -4.0775061 -1.2255419
-8.9339876 -4.1594477 -1.2435062
-8.9454956 -4.1984529 -1.2475151
-12.070102 -5.6373682 -1.7330488
-9.0523281 -4.3004017 -1.2664872
-9.0228367 -4.3224349 -1.2645161
-8.9303236 -4.3155103 -1.2525746
-11.949902 -5.7465038 -1.7241676
-11.923423 -5.7815371 -1.7221979
-11.892943 -5.8145733 -1.7202299
-11.873199 -5.8285942 -1.718248
-11.835721 -5.8586354 -1.7152834
-11.800224 -5.8876739 -1.7133172
-11.779754 -5.9257035 -1.7123448
-11.758277 -5.9627333 -1.7123724
-11.720783 -5.9907737 -1.709407
-11.698313 -6.0278039 -1.7084353
-11.673564 -6.0388279 -1.7064553
-11.63908 -6.0688663 -1.7034887
-11.611593 -6.1018996 -1.7025188
-11.586108 -6.135932 -1.7015477
-11.556622 -6.1679668 -1.6995786
-11.523148 -6.1990042 -1.6976117
-11.498658 -6.2330356 -1.69664
-11.462909 -6.2380667 -1.692665
-11.438432 -6.273098 -1.6916937
-11.425958 -6.3141217 -1.6927166
-11.371459 -6.3321724 -1.6867585
-11.35398 -6.3701992 -1.6877836
-11.331493 -6.4052291 -1.6868109
-11.265003 -6.4172878 -1.6788583
-11.24125 -6.4273109 -1.6768774
-11.147754 -6.424387 -1.6649369
-11.040234 -6.4114718 -1.651002
-10.973726 -6.4205298 -1.6440485
-10.94224 -6.4495649 -1.6420794
-10.853735 -6.4466381 -1.6301358
-10.756226 -6.4377155 -1.618196
-10.746477 -6.4547291 -1.6182085
-10.661963 -6.4517989 -1.6072624
-10.595469 -6.4598565 -1.6003087
-10.440927 -6.4149704 -1.5773932
-10.390434 -6.4310174 -1.5724319
-10.472995 -6.525979 -1.589412
-10.233418 -6.4281473 -1.5535334
-10.104629 -6.3732376 -1.5335979
-10.273232 -6.5211434 -1.5645406
-10.041659 -6.4253063 -1.5296578
-10.004158 -6.4463444 -1.5266899
-9.9556646 -6.4613895 -1.5227269
-9.8431463 -6.4364758 -1.5067918
-9.7933855 -6.4275146 -1.4998212
-9.6908693 -6.4075937 -1.4868815
-9.6813879 -6.4456134 -1.4879012
-9.7039127 -6.503613 -1.4949069
-9.5603867 -6.4567184 -1.4749845
-9.6319351 -6.5466866 -1.4899694
-9.3733387 -6.421864 -1.4500953
-9.3185768 -6.4079061 -1.4421264
-9.2410755 -6.400969 -1.432175
-9.1655645 -6.3940301 -1.4232224
-9.116066 -6.4040747 -1.4182587
-9.0375509 -6.3941379 -1.408307
-8.9780531 -6.3971887 -1.4013473
-8.9863176 -6.42419 -1.4043514
-8.913805 -6.4172487 -1.3953969
-8.8672981 -6.4272914 -1.3904313
-8.7837868 -6.4123569 -1.3794812
-8.7152824 -6.407413 -1.3715249
-8.6747875 -6.4214516 -1.3675567
-8.6042843 -6.4145088 -1.359601
-8.5485134 -6.3955503 -1.3506314
-8.5160103 -6.4135828 -1.3486592
-8.428504 -6.3936505 -1.3367105
-8.4020166 -6.4166803 -1.335736
-8.3525057 -6.4217238 -1.3307707
-8.3230238 -6.4427552 -1.3287977
-8.2835302 -6.4557924 -1.3258284
-8.2297525 -6.435832 -1.3178573
-8.0812054 -6.3669367 -1.2949324
-8.0557137 -6.3889651 -1.2939571
-8.0282288 -6.4099951 -1.2929827
-7.9687214 -6.406044 -1.286021
-8.0202694 -6.4870253 -1.2980145
-7.8617091 -6.4061351 -1.2740924
-7.955018 -6.4990835 -1.292062
-7.7794547 -6.4042044 -1.2641468
-7.6969323 -6.3802671 -1.2531939
-7.624423 -6.3643241 -1.243237
-7.603929 -6.3883486 -1.243259
-7.5564299 -6.3913903 -1.2382919
-7.4979267 -6.3854384 -1.2313291
-7.487174 -6.396451 -1.2313401
-7.4856887 -6.4354639 -1.2343543
-7.397172 -6.40453 -1.2224033
-7.3816867 -6.4325514 -1.2224232
-7.3391795 -6.4375892 -1.2184533
-7.3286958 -6.4696078 -1.2204713
-7.3129449 -6.4766231 -1.2194842
-7.3014698 -6.5086422 -1.2215025
-7.3179989 -6.5636439 -1.22751
-7.300518 -6.5906668 -1.2285305
-7.3450537 -6.6696515 -1.2405269
-7.2965488 -6.669693 -1.2355595
-7.286067 -6.7027111 -1.2365772
-7.3083467 -6.7437038 -1.2435758
-7.3058653 -6.7837176 -1.2465904
-7.2833662 -6.8057427 -1.2466125
-7.2908878 -6.8547497 -1.2516234
-7.3004217 -6.9067564 -1.2576338
-7.3309636 -6.9777503 -1.2676362
-7.3284798 -7.0187635 -1.2706509
-7.315742 -7.0297771 -1.2706628
-7.3192644 -7.076787 -1.2756753
-7.3007736 -7.1038098 -1.275696
-7.3043027 -7.1518197 -1.2807087
-7.3188319 -7.2098231 -1.2887172
-7.3503661 -7.2838163 -1.2987192
-7.2948565 -7.2768607 -1.2917538
-7.4021883 -7.4018035 -1.3157212
-7.3106589 -7.3608699 -1.301769
-7.4102359 -7.5018229 -1.3257462
-7.3727317 -7.5118566 -1.3227739
-7.3312364 -7.5188932 -1.3198034
-7.345768 -7.5798969 -1.326812
-7.3773189 -7.6588907 -1.3378149
-7.3125319 -7.6179338 -1.3268452
-7.3430877 -7.696928 -1.3378485
-7.3786283 -7.7799196 -1.3498496
-7.3471355 -7.7969499 -1.3488752
-7.4056869 -7.9039273 -1.364868
-7.6403646 -8.1928024 -1.4177984
-7.3224235 -7.8929939 -1.3559192
-7.3339548 -7.953999 -1.3629292
-7.3144732 -7.9840226 -1.3639505
-7.424068 -8.1479702 -1.3919259
-7.3005114 -8.0690546 -1.3709837
-7.3600731 -8.1820316 -1.3889768
-7.3325715 -8.2030592 -1.3880005
-7.2828169 -8.1770945 -1.3810254
-7.2793365 -8.2241077 -1.3850408
-7.2698545 -8.2651253 -1.3890584
-7.2953925 -8.3441219 -1.3990636
-7.3409486 -8.4461079 -1.4140621
-7.3464794 -8.5051165 -1.4210745
-7.3540049 -8.566124 -1.4280862
-7.5403962 -8.8000231 -1.4700295
-7.4368577 -8.7400942 -1.4540796
-7.3022881 -8.6431837 -1.4311398
-7.4128866 -8.8221321 -1.4601166
-7.264318 -8.7092295 -1.4341817
-7.2498336 -8.7472486 -1.4372009
-7.2863932 -8.8452396 -1.4512031
-7.2766452 -8.8612509 -1.4522135
-7.3141932 -8.9602413 -1.4662154
-7.3517513 -9.0612316 -1.4802175
-7.3432713 -9.1082487 -1.4842348
-7.2587366 -9.0653086 -1.4722773
-7.2432542 -9.1043291 -1.475297
-7.2615252 -9.1543245 -1.482298
-7.3471127 -9.3152876 -1.5072845
-7.3226376 -9.3463135 -1.5083076
-7.3081403 -9.3863335 -1.5113266
-7.3076763 -9.4463453 -1.5183415
-7.307199 -9.5053568 -1.5243564
-7.3047304 -9.5633698 -1.5303719
-7.3200011 -9.6123676 -1.5373743
-7.3115258 -9.6633844 -1.5423919
-7.3120599 -9.7263956 -1.5494065
-7.3015809 -9.7754135 -1.5534247
-7.2981057 -9.8334265 -1.5594406
-7.3036447 -9.9044361 -1.5684539
-7.3081727 -9.9734449 -1.5764672
-7.3034344 -9.9994535 -1.5784762
-7.2959528 -10.053469 -1.5844933
-7.296494 -10.120481 -1.5915084
-7.2980208 -10.187491 -1.5995227
-7.2895465 -10.242508 -1.6045403
-7.2840714 -10.301522 -1.6115571
-7.2916059 -10.37853 -1.6205698
-7.3008833 -10.42553 -1.6265746
-7.2934022 -10.482547 -1.632592
-7.298944 -10.559555 -1.6416055
-7.2914705 -10.61857 -1.6476231
-7.2900033 -10.686583 -1.6556387
-7.290535 -10.757594 -1.6636537
-7.2860589 -10.821609 -1.6706703
-7.2903371 -10.864613 -1.6756769
-7.2988763 -10.948619 -1.6866896
-7.294404 -11.014633 -1.6937063
-7.2869344 -11.077649 -1.700724
-7.2864661 -11.150661 -1.7087396
-7.2839985 -11.221673 -1.7167559
-7.2972693 -11.277672 -1.7247593
-7.2968035 -11.352684 -1.7337751
-7.2923355 -11.422698 -1.740792
-7.292872 -11.500709 -1.7508075
-7.2914085 -11.576721 -1.7588238
-7.2859378 -11.646735 -1.7668409
-7.2854695 -11.724748 -1.7758566
-7.2997513 -11.786746 -1.7848606
-7.2992949 -11.867758 -1.7938768
-7.2918205 -11.936772 -1.8018945
-7.2893605 -12.015786 -1.8109114
-7.2828884 -12.087801 -1.8189291
-7.2904353 -12.183809 -1.830943
-7.2849698 -12.259823 -1.8399606
-7.3022466 -12.328819 -1.8499635
-7.292779 -12.399836 -1.8579824
-7.2933207 -12.487847 -1.8679985
-7.2888541 -12.567861 -1.8770159
-7.2863955 -12.652874 -1.887033
-7.2879376 -12.744884 -1.8990489
-7.3042154 -12.815882 -1.9090525
-7.3007522 -12.900895 -1.9190698
-7.2952962 -12.984909 -1.9280881
-7.2878304 -13.064924 -1.9381065
-7.289371 -13.160934 -1.9491227
-7.2939196 -13.263945 -1.9621382
-7.2824473 -13.338962 -1.9711577
-7.2987409 -13.416959 -1.9811621
-7.2972779 -13.51097 -1.9931791
-7.292819 -13.601984 -2.0041971
-7.2913623 -13.698996 -2.0162146
-7.2909064 -13.799008 -2.0282314
-7.2844448 -13.889023 -2.0392504
-7.2799873 -13.984035 -2.0502684
-7.3002744 -14.072031 -2.0622718
-7.2948213 -14.168045 -2.0742905
-7.285356 -14.256062 -2.0843101
-7.2919126 -14.376069 -2.1003261
-7.2834492 -14.468085 -2.1113455
-7.2789917 -14.569098 -2.123364
-7.2952895 -14.657096 -2.1353691
-7.2928309 -14.763108 -2.1483872
-7.2873769 -14.866122 -2.1614063
-7.2869282 -14.980134 -2.1754241
-7.2844763 -15.091146 -2.1894426
-7.2730126 -15.185163 -2.2004633
-7.2775655 -15.312172 -2.2164798
-7.2898564 -15.397171 -2.2284863
-7.2864051 -15.511185 -2.2425051
-7.2839575 -15.629197 -2.257524
-7.2805119 -15.74721 -2.2725434
-7.2700505 -15.850225 -2.284564
-7.2746162 -15.988235 -2.3025818
-7.2631564 -16.092253 -2.3156028
-7.2864585 -16.206245 -2.3316069
-7.2860203 -16.338257 -2.3486259
-7.2755699 -16.450274 -2.3616474
-7.2661109 -16.563288 -2.375668
-7.27068 -16.711298 -2.3956864
-7.264226 -16.834311 -2.4107065
-7.2537775 -16.952326 -2.4257283
-7.2830939 -17.089319 -2.444732
-7.2776508 -17.221333 -2.4617527
-2.4912498 -6.5137706 -0.80177122
-2.4046791 -6.3678226 -0.7777999
-2.4612634 -6.5548015 -0.80579948
-7.2584505 -17.927395 -2.5518558
-7.2767582 -18.049391 -2.5688622
-7.2703156 -18.191406 -2.586884
-7.2688904 -18.350418 -2.6079049
-7.2624516 -18.497431 -2.6269267
-7.2530141 -18.640448 -2.6449494
-7.2565823 -18.814457 -2.6679695
-7.2759008 -18.949453 -2.6869764
-7.273468 -19.114464 -2.708998
-7.278048 -19.300472 -2.7330184
-7.2606044 -19.43449 -2.7500434
-7.2531719 -19.595507 -2.7710664
-7.2547493 -19.781515 -2.7950878
-7.8160896 -21.445248 -3.0440121
-7.7753234 -21.437273 -3.0410306
-7.70682 -21.459316 -3.040066
-7.6373119 -21.477364 -3.0391009
-7.5698061 -21.500406 -3.0391357
-7.4942908 -21.502455 -3.0351717
-2.5861492 -8.0968847 -1.0149935
-2.6107068 -8.2438803 -1.0360019
-2.5264008 -8.1269341 -1.0160345
-2.5349357 -8.230937 -1.0310454
-0.92969769 -3.6547387 -0.34430841
-0.89616078 -3.5907619 -0.33432215
-0.88367885 -3.5907753 -0.33433321
-0.87592983 -3.5857825 -0.33233884
-0.85842109 -3.5687978 -0.3293502
-0.84091818 -3.5518134 -0.32636163
-0.83040458 -3.5548253 -0.3263717
-0.82592559 -3.5788343 -0.32938141
-0.81243944 -3.5748479 -0.32839239
-0.79994065 -3.5728607 -0.32740301
-0.78316742 -3.5368721 -0.32240948
-0.77366859 -3.5438838 -0.32241958
-0.7621873 -3.5458963 -0.32243025
-0.75167805 -3.548908 -0.3224403
-0.74517888 -3.5659177 -0.32444993
-0.72968847 -3.5539322 -0.32246095
-0.71516085 -3.5419457 -0.32047117
-0.71542984 -3.5639491 -0.32347581
-0.70090449 -3.5519626 -0.32048604
-0.69243348 -3.5649736 -0.32249641
-0.68091851 -3.5639858 -0.32150638
-0.66744131 -3.5589991 -0.32051724
-0.66594094 -3.5950062 -0.32552624
-0.64642656 -3.5650222 -0.32053709
-0.65069157 -3.6030235 -0.32554132
-0.63417113 -3.5830379 -0.32255167
-0.62971079 -3.6130471 -0.32656178
-0.61518943 -3.6000605 -0.32457185
-0.6026969 -3.5970731 -0.3235822
-0.59620112 -3.6170828 -0.32559189
-0.59542203 -3.6340859 -0.32859591
-0.5879389 -3.652096 -0.33060595
-0.57846242 -3.6631074 -0.33161634
-0.57593745 -3.6981144 -0.33662519
-1.141742 -6.2238531 -0.70261276
-1.1262234 -6.2398667 -0.70462501
-1.1114734 -6.2208772 -0.7016319
-1.0899653 -6.2138939 -0.69964486
-1.0724832 -6.2279086 -0.70165807
-1.0519583 -6.2219248 -0.69967049
-1.0304539 -6.2149415 -0.69768339
-1.0149604 -6.2359552 -0.70069611
-0.99146235 -6.220973 -0.6977092
-0.98272544 -6.2289805 -0.69871593
-0.9622165 -6.224997 -0.69772846
-0.94269484 -6.2230124 -0.69674075
-0.92319494 -6.225028 -0.69675344
-0.90470123 -6.2330432 -0.69676626
-0.8832103 -6.2270598 -0.6957792
-0.86570692 -6.2380743 -0.69679165
-0.85295701 -6.2240839 -0.69479805
-0.81941497 -6.1461058 -0.68280989
-0.81093919 -6.2081156 -0.69082284
-0.78039956 -6.143136 -0.68183446
-0.75289416 -6.0991559 -0.67484671
-0.73539925 -6.1101699 -0.67585921
-0.72965592 -6.1331758 -0.67886549
-0.71114248 -6.1351905 -0.67887747
-0.70466757 -6.2141995 -0.68989068
-0.69017756 -6.2462125 -0.69390339
-0.66768777 -6.2322297 -0.69091588
-0.64818031 -6.2312446 -0.69092798
-0.62866509 -6.2282596 -0.68993986
-0.61591232 -6.2092686 -0.68694574
-0.59739858 -6.2122831 -0.68695766
-0.5809046 -6.2332969 -0.6899702
-0.56240058 -6.2393112 -0.6899823
-0.54290992 -6.2423263 -0.68999469
-0.52240461 -6.2343416 -0.68900657
-0.51264703 -6.2323494 -0.68801236
-0.49114797 -6.2183657 -0.68602431
-0.47566587 -6.2523785 -0.69103724
-0.45513964 -6.2373939 -0.68804836
-0.43363145 -6.2194095 -0.68505985
-0.41713527 -6.243423 -0.68807232
-0.39664254 -6.2374382 -0.68708432
-0.38688096 -6.2334456 -0.68608987
-0.36639029 -6.2274609 -0.68510187
-0.34687009 -6.2194757 -0.68411303
-0.3273797 -6.2214904 -0.68412507
-0.30988023 -6.2385039 -0.68613732
-0.2893815 -6.228519 -0.68414879
-0.26986495 -6.2205338 -0.68315995
-0.26212576 -6.2435403 -0.6861667
-0.24162698 -6.2325554 -0.68417805
-0.2221076 -6.2225695 -0.68318903
-0.204625 -6.2495828 -0.68620187
-0.18410024 -6.2255983 -0.68321216
-0.16460812 -6.2266126 -0.68322396
-0.15584199 -6.229619 -0.68322945
-0.13634977 -6.2306337 -0.68324119
-0.11684 -6.2226477 -0.68225223
-0.098341934 -6.2336621 -0.68326414
-0.077846318 -6.218677 -0.68127519
-0.059340429 -6.2256908 -0.68228668
-0.040839929 -6.2367039 -0.68329853
-0.03009291 -6.2207122 -0.68130368
-0.011582529 -6.2257257 -0.681315
0.0069281766 -6.2307396 -0.68232632
0.026427981 -6.2257538 -0.68133742
0.045931794 -6.2167673 -0.68034828
0.06541612 -6.2227817 -0.68136013
0.083919205 -6.235795 -0.68237185
0.093674242 -6.2278023 -0.68137699
0.11317849 -6.2158165 -0.67938751
0.13169771 -6.2128301 -0.67939812
0.15019722 -6.2328434 -0.68241024
0.16969283 -6.228857 -0.68142128
0.18919244 -6.2178717 -0.67943186
0.20770904 -6.2178845 -0.67944258
0.21744889 -6.2278914 -0.68144882
0.23694371 -6.2219052 -0.68045974
0.25546128 -6.2199187 -0.68047023
0.27495012 -6.2279325 -0.6814819
0.29347035 -6.2159457 -0.67949176
0.31295797 -6.2389593 -0.68250424
0.32270527 -6.2309666 -0.68150932
0.34122324 -6.2109795 -0.6795187
0.36071467 -6.2249932 -0.68153059
0.38020787 -6.2340064 -0.68254209
0.39872369 -6.22402 -0.68155205
0.41723588 -6.2060332 -0.67856151
0.43673214 -6.2210464 -0.68057334
0.44648296 -6.2330527 -0.6825794
0.46499273 -6.2160659 -0.68058896
0.48449185 -6.2290792 -0.6826005
0.50299561 -6.2070923 -0.67960972
0.52151144 -6.2061052 -0.67962003
0.54100841 -6.2131186 -0.68063122
0.56050664 -6.2201319 -0.68164235
0.57025397 -6.2211385 -0.68164778
0.58975178 -6.2261519 -0.68265879
0.60825837 -6.2151647 -0.68166852
0.62774992 -6.2141776 -0.68167919
0.64626682 -6.2131906 -0.68168932
0.66576779 -6.2192035 -0.68270022
0.67552429 -6.2262101 -0.68370581
0.69501716 -6.2252231 -0.68371642
0.71351701 -6.2122359 -0.68172598
0.73202938 -6.2082486 -0.68173587
0.75054312 -6.2052612 -0.68174583
0.77102214 -6.2112746 -0.68275708
0.78954566 -6.2132869 -0.68276715
0.79929113 -6.2122936 -0.68277234
0.81879383 -6.2163057 -0.68378294
0.83829755 -6.2203188 -0.68479347
0.85878563 -6.228332 -0.68580472
0.87630641 -6.2163439 -0.68481362
0.89580292 -6.2163568 -0.68482393
0.91530436 -6.2183695 -0.68583441
0.92506033 -6.2213755 -0.68583965
0.9465425 -6.2353892 -0.6888513
0.96404821 -6.2184014 -0.68686008
0.98256618 -6.216413 -0.68686974
1.0000767 -6.202425 -0.68487847
1.0195715 -6.201438 -0.68488866
1.0283312 -6.1964436 -0.68489307
1.048836 -6.2074566 -0.68690407
1.0713232 -6.2284698 -0.68991613
1.0898248 -6.2204819 -0.68892556
1.1093228 -6.2194948 -0.68893558
1.1278393 -6.216506 -0.688945
1.1483389 -6.2235188 -0.6909557
1.1590956 -6.2325253 -0.69196135
1.1775863 -6.2215376 -0.6909706
1.1970928 -6.2225494 -0.69198048
1.2156036 -6.2175612 -0.69098979
1.2360898 -6.2195745 -0.69200021
1.2566031 -6.2285867 -0.69401062
1.2731183 -6.2115979 -0.69201869
1.2848595 -6.2216043 -0.69402474
1.3053489 -6.2236166 -0.69403499
1.3248674 -6.2266288 -0.69504482
1.3443664 -6.2246408 -0.69605446
1.3648704 -6.2296529 -0.6970647
1.3823776 -6.2176642 -0.69607317
1.4028788 -6.2216768 -0.69708335
1.4126161 -6.2176828 -0.69608808
1.4311454 -6.2166939 -0.69709718
1.4526286 -6.2217069 -0.69810772
1.4731333 -6.225719 -0.69911772
1.4926449 -6.2257309 -0.70012724
1.5121479 -6.223742 -0.70013666
1.5218852 -6.2197485 -0.70014137
1.5424027 -6.2257605 -0.70115125
1.5629071 -6.2287722 -0.70216113
1.5813965 -6.2187839 -0.70116991
1.602898 -6.2257962 -0.70318019
1.6234102 -6.2298079 -0.70418996
1.6438978 -6.2288198 -0.70519972
1.6486781 -6.2098236 -0.7022019
1.6751739 -6.2378373 -0.70721447
1.6926661 -6.2238483 -0.70622271
1.7101734 -6.2128596 -0.70523089
1.733668 -6.225872 -0.70724183
1.7531716 -6.2228832 -0.70825094
1.7716883 -6.2178941 -0.70825952
1.7814319 -6.2149 -0.70826405
1.8009247 -6.2099113 -0.70827305
1.8224514 -6.2189236 -0.71028298
1.8419453 -6.2139344 -0.71029198
1.8564507 -6.1909442 -0.7072987
1.8829525 -6.2149577 -0.71131068
1.8977059 -6.2329645 -0.71431732
1.9162016 -6.2239752 -0.71432573
1.9347092 -6.2169862 -0.71333408
1.9572164 -6.2249985 -0.71534419
1.97672 -6.2210093 -0.71635294
1.9982156 -6.223021 -0.71736252
2.0217173 -6.2330332 -0.71937299
2.0254805 -6.2110367 -0.71637481
2.0489771 -6.2200489 -0.71938515
2.0714798 -6.2260609 -0.72039503
2.0899696 -6.2160716 -0.72040325
2.1104941 -6.218082 -0.72141218
2.1369903 -6.236095 -0.72442359
2.1554816 -6.2261062 -0.72443169
2.1592498 -6.2061095 -0.72143358
2.1847389 -6.2191224 -0.72444445
2.2022524 -6.2091322 -0.72445214
2.2247434 -6.2121439 -0.72546172
2.2472503 -6.217155 -0.72747129
2.2657561 -6.2091656 -0.72647929
2.2795155 -6.2201719 -0.72948503
2.3010054 -6.2191834 -0.72949409
2.3185198 -6.2091932 -0.72950166
2.341018 -6.2122049 -0.73051107
2.3645175 -6.2182159 -0.73252088
2.3810251 -6.2042255 -0.73152792
2.4025261 -6.2042365 -0.73253691
2.4202816 -6.225244 -0.73654389
2.4397922 -6.2202544 -0.736552
2.4592872 -6.2132649 -0.73656017
2.4817863 -6.2152758 -0.73856938
2.5052965 -6.2212873 -0.74057883
2.5217962 -6.2062969 -0.73858583
2.5473049 -6.2173085 -0.74159592
2.5530491 -6.2023125 -0.74059856
2.5765643 -6.208324 -0.7416079
2.6040504 -6.2213364 -0.74561864
2.6195555 -6.2043452 -0.74362522
2.6420724 -6.207356 -0.74563408
2.6675589 -6.2143679 -0.74764407
2.6880636 -6.2103782 -0.74865222
2.6938212 -6.197382 -0.74665475
2.7243309 -6.2193952 -0.75166625
2.7398264 -6.2014041 -0.74967265
2.7653379 -6.2104149 -0.75268239
2.7878475 -6.2114258 -0.75369108
2.8053339 -6.1974354 -0.75269812
2.8230858 -6.2134423 -0.75670463
2.8445849 -6.2104526 -0.75671291
2.8700974 -6.2184639 -0.75972241
2.8895965 -6.2104735 -0.75972998
2.9161005 -6.2194853 -0.76273978
2.9296105 -6.198493 -0.76074541
2.9531171 -6.2005043 -0.76175416
2.968869 -6.2105103 -0.76475978
2.9953711 -6.2185216 -0.76676947
3.0118632 -6.2025304 -0.76577598
3.0423596 -6.2185426 -0.76978683
3.0568752 -6.200551 -0.76879251
3.085371 -6.2115626 -0.77180266
3.1098776 -6.2145739 -0.77381152
3.118633 -6.2085781 -0.77281481
3.1451387 -6.215589 -0.77582425
3.1686318 -6.2145996 -0.7768327
3.1881504 -6.2076087 -0.77783984
3.2166502 -6.2176204 -0.78084975
3.2361615 -6.2096295 -0.78085685
3.2539008 -6.2206364 -0.78286284
3.2684166 -6.2026439 -0.7818684
3.2989132 -6.2156558 -0.78587878
3.3214161 -6.212666 -0.78688669
3.350909 -6.2226777 -0.78989667
3.3854148 -6.24369 -0.79490799
3.3989334 -6.2236977 -0.79291314
3.4286664 -6.2567072 -0.79892242
3.457171 -6.2647181 -0.8019318
3.4836669 -6.2677293 -0.80394071
3.5051823 -6.2627382 -0.80494803
3.5376768 -6.2767506 -0.80895853
3.5611663 -6.2727609 -0.80996644
3.5776899 -6.2587686 -0.80997229
3.6004384 -6.2777758 -0.81397927
3.617944 -6.2637839 -0.81298536
3.6454539 -6.2687945 -0.8159942
3.6709423 -6.2678051 -0.81700253
3.6984568 -6.2728157 -0.82001126
3.7239485 -6.2718253 -0.82201952
3.7407086 -6.2798319 -0.82402462
3.7622056 -6.2718406 -0.82403171
3.7857077 -6.2678504 -0.82503921
3.8152153 -6.2748609 -0.8290484
3.8397126 -6.2718706 -0.83005613
3.8632193 -6.26788 -0.83106363
3.8957322 -6.2798915 -0.83507341
3.9044778 -6.2718949 -0.83507633
3.9289806 -6.2689047 -0.83608395
3.9554803 -6.2689147 -0.83809203
3.981982 -6.2689247 -0.84010011
4.0024967 -6.259933 -0.84110659
4.032002 -6.2649436 -0.84311533
4.0674887 -6.2779555 -0.84812564
4.0812454 -6.2789607 -0.84912974
4.1067524 -6.2769699 -0.85013735
4.1302524 -6.2709789 -0.85214442
4.1557512 -6.2679887 -0.85315204
4.1862626 -6.2739987 -0.85616082
4.2087626 -6.2660079 -0.85716754
4.2392788 -6.2720175 -0.86017627
4.261025 -6.2840242 -0.86318219
4.2855272 -6.2790337 -0.86518931
4.3060336 -6.2680416 -0.86519545
4.3385348 -6.2750525 -0.86820453
4.3640356 -6.2710614 -0.87021178
4.3875499 -6.26507 -0.8712185
4.417294 -6.2880783 -0.87622625
4.4338059 -6.2710853 -0.87623125
4.468297 -6.2790966 -0.87924057
4.4968123 -6.2801061 -0.8822484
4.5202999 -6.2711143 -0.883255
4.5478129 -6.2701235 -0.88526249
4.5813084 -6.276134 -0.88827139
4.59306 -6.2721381 -0.8892746
4.6245699 -6.2761483 -0.89228296
4.655076 -6.2781582 -0.89529103
4.6755743 -6.2651658 -0.89529675
4.7020798 -6.2611747 -0.89730382
4.7405896 -6.2741861 -0.90131354
4.7620869 -6.2621937 -0.90231937
4.7818542 -6.2701993 -0.90532434
4.8213444 -6.2822108 -0.90933424
4.8348451 -6.2592168 -0.90833813
4.8623567 -6.2562256 -0.91034526
4.9008484 -6.2662368 -0.91435474
4.9343519 -6.2702465 -0.91836309
4.9578624 -6.2612548 -0.9193691
4.9776049 -6.2662601 -0.92137384
5.010107 -6.26827 -0.92438185
5.0386267 -6.2662787 -0.92638886
5.0731268 -6.2702885 -0.93039721
5.0936313 -6.2562957 -0.93040246
5.1291323 -6.2613058 -0.93441093
5.1578898 -6.2783127 -0.93841749
5.1803794 -6.2653203 -0.93942308
5.2118893 -6.2653294 -0.94243056
5.2483983 -6.2713394 -0.94643903
5.268898 -6.2563462 -0.94644409
5.3004022 -6.2553554 -0.94945139
5.3271551 -6.268362 -0.95345736
5.3526688 -6.2603698 -0.9544633
5.3871713 -6.2623792 -0.95847118
5.4226747 -6.265389 -0.96147919
5.455164 -6.2633982 -0.96448648
5.4866829 -6.2624068 -0.96749359
5.5201745 -6.261416 -0.97050107
5.5399332 -6.2654209 -0.97250533
5.5734301 -6.26443 -0.97551274
5.6149368 -6.2734408 -0.98052168
5.6484389 -6.272449 -0.98352897
5.6729484 -6.2614565 -0.98453438
5.7224383 -6.2774682 -0.99154466
5.7449551 -6.2644749 -0.99154961
5.7736969 -6.2764816 -0.99555558
5.8071995 -6.2744908 -0.99856263
5.8417149 -6.2744994 -1.0025698
5.8732123 -6.2695074 -1.0045763
5.9167209 -6.2785177 -1.0095851
5.9342284 -6.2585235 -1.009589
5.9847231 -6.2735353 -1.0165991
5.9964871 -6.2675385 -1.0166014
6.0429802 -6.2775488 -1.0226107
6.0664864 -6.2635555 -1.0236155
6.113986 -6.2745667 -1.0286248
6.1454897 -6.2685742 -1.0316309
6.1810055 -6.2675829 -1.0346378
6.2154999 -6.2635908 -1.0376445
6.2442598 -6.2745972 -1.0416501
6.2857552 -6.2776065 -1.0466579
6.3202572 -6.2736149 -1.0496644
6.3507624 -6.2656221 -1.0516702
6.388268 -6.2646308 -1.0556772
6.431776 -6.2696404 -1.0606852
6.4545245 -6.272645 -1.0626893
6.4920259 -6.2706537 -1.0666963
6.5305305 -6.2696624 -1.0707031
6.5630369 -6.26267 -1.0727091
6.6015463 -6.2616782 -1.0767159
6.6480365 -6.2666883 -1.0827241
6.6955433 -6.2736983 -1.0877326
6.7153029 -6.2737026 -1.089736
6.7598028 -6.2767115 -1.0947437
6.78931 -6.265718 -1.0967487
6.8508015 -6.28373 -1.1047592
6.8773122 -6.2697363 -1.1067637
6.9178224 -6.2687445 -1.1107705
6.9475737 -6.2767501 -1.1147755
7.0010638 -6.2857609 -1.1207844
7.0275698 -6.2707667 -1.1227887
7.0710821 -6.2717752 -1.1277958
7.122582 -6.2787852 -1.1338041
7.1610956 -6.2747931 -1.1368103
7.1996002 -6.2698007 -1.1408165
7.2343478 -6.280807 -1.1458219
7.2728453 -6.2748146 -1.148828
7.3223481 -6.2788234 -1.1548356
7.3638558 -6.2758317 -1.1588421
7.4143558 -6.2798409 -1.1648498
7.453867 -6.2748485 -1.1688558
7.4973755 -6.2728558 -1.1738622
7.5191183 -6.2708602 -1.1758654
7.5626316 -6.268868 -1.1798718
7.6271253 -6.2828794 -1.1888815
7.6556301 -6.2668848 -1.1898855
7.7021346 -6.265893 -1.1948923
7.7596407 -6.2739029 -1.2019005
7.7863917 -6.2759075 -1.2059044
7.9798784 -6.393939 -1.2369332
8.1853762 -6.5209718 -1.2709637
8.2428694 -6.5249815 -1.2779714
8.2883759 -6.519989 -1.2829773
8.3288851 -6.5109954 -1.2869824
8.3623934 -6.4960008 -1.2889866
8.4191427 -6.5200095 -1.2969946
8.4716425 -6.5190182 -1.3030012
8.4981527 -6.4980221 -1.3040041
8.475666 -6.4390187 -1.2969998
8.5051708 -6.4200234 -1.2990031
